-0.087095 -0.023361 0.027353 -0.603959 0.939746 1.267513 
0.065244 0.047527 -0.041122 0.387084 1.395940 0.869686 
-0.041382 0.018665 -0.000055 -0.149286 1.224412 1.155046 
0.111858 -0.051168 -0.114490 1.598476 0.385131 -0.385131 
0.001292 -0.202299 -0.033848 0.015021 -1.194565 1.194565 
-0.067586 0.037635 -0.105784 -0.872827 1.022639 -1.022639 
0.001704 -0.087096 -0.235123 0.009915 -0.693753 -1.539598 
0.077355 -0.073521 -0.207546 1.032242 0.945543 -0.945543 
-0.086560 -0.176254 -0.151819 -0.282311 -1.214846 -1.139971 
-0.107422 -0.115216 -0.190753 -1.462149 0.062680 -0.834529 
-0.080190 -0.111751 0.018916 -1.081255 -0.916342 0.916342 
-0.049643 -0.053820 -0.209525 -0.610452 1.113316 -1.113316 
-0.110265 -0.060653 -0.130302 -1.576797 0.427742 -0.427742 
-0.040652 -0.126565 -0.204962 -0.089790 -1.102850 -1.277298 
-0.056117 -0.047752 0.053751 -0.328641 0.811969 1.444482 
-0.067036 -0.065672 -0.209514 -0.864467 1.025847 -1.025896 
-0.034520 0.022056 -0.140456 -0.411643 1.158496 -1.158496 
0.116297 -0.125567 -0.085830 1.655515 -0.235020 0.235020 
0.082965 -0.004621 -0.131817 1.129991 0.885778 -0.885778 
-0.022255 -0.202491 -0.130476 -0.044525 -1.263312 -1.121628 
0.096179 -0.199517 -0.092990 1.360470 -0.708745 0.703892 
0.059722 0.011922 -0.137552 0.753476 1.068785 -1.068785 
-0.118782 -0.030189 -0.018674 -1.685315 -0.036043 0.097809 
0.029459 -0.153315 -0.181059 0.051531 -1.169703 -1.218649 
-0.113590 -0.072428 -0.016964 -1.621217 -0.333783 0.333756 
0.118980 -0.077414 -0.071057 1.687808 -0.036962 0.036962 
-0.051281 -0.063536 -0.218269 -0.633427 1.106507 -1.106434 
0.004235 -0.234495 -0.066544 0.048784 -1.331507 1.036328 
-0.078672 0.008219 -0.124348 -1.054585 0.933068 -0.933068 
-0.057747 -0.194991 -0.044093 -0.724146 -1.079445 1.079445 
0.030861 -0.066050 -0.229664 0.366460 1.143001 -1.187377 
-0.117313 -0.030081 -0.062321 -1.668038 0.189214 -0.189214 
0.105630 -0.045402 -0.130025 1.510529 0.534030 -0.534030 
-0.040034 -0.137676 0.022606 -0.482662 -1.144017 1.144017 
-0.115317 -0.111076 -0.157244 -1.643366 0.274720 -0.274720 
0.077502 0.015887 -0.005091 0.401508 1.214057 1.104310 
-0.046587 -0.161504 -0.004111 -0.568339 -1.125051 1.125051 
0.086648 0.022093 -0.100496 1.194666 0.845216 -0.845216 
0.023695 -0.146501 -0.187754 0.042123 -1.157575 -1.230533 
0.098801 -0.074786 -0.175976 1.403790 0.662433 -0.662433 
0.088156 0.004274 -0.115911 1.221238 0.824090 -0.824090 
-0.083551 -0.076350 0.046583 -1.110386 -0.478493 1.175310 
-0.067746 -0.061183 0.056083 -0.597175 0.437820 1.517064 
0.018853 -0.026181 -0.192794 0.220795 1.183688 -1.183688 
0.036149 0.040202 -0.121792 0.431881 1.155259 -1.155259 
-0.115028 -0.071750 -0.023682 -1.639778 -0.286441 0.286441 
0.026675 -0.232021 -0.067288 0.313826 -1.263628 1.074502 
0.113630 -0.051581 -0.106863 1.621749 0.332567 -0.332567 
-0.045037 0.022463 -0.135615 -0.548087 1.129535 -1.129535 
0.074073 -0.212936 -0.075686 0.978263 -0.972179 0.972179 
0.087370 -0.187100 -0.139643 0.320378 -1.251551 -1.089198 
0.118128 -0.128835 -0.151973 1.677742 0.135229 -0.135229 
-0.095130 0.019894 -0.088769 -1.343146 0.723879 -0.723879 
0.060736 -0.090479 0.056468 0.761669 -0.792519 1.279861 
-0.069939 -0.067723 -0.209036 -0.910268 1.005707 -1.005759 
0.089474 0.011125 -0.106952 1.244450 0.805584 -0.805584 
0.092401 -0.036412 0.033043 0.826603 0.719227 1.285715 
-0.072637 -0.219345 -0.100235 -0.463476 -1.469852 -0.689582 
-0.032980 -0.159006 0.003975 -0.392628 -1.161405 1.161405 
-0.087993 -0.102401 0.018044 -1.218360 -0.826385 0.826385 
-0.003581 -0.036900 0.052148 -0.016134 0.994168 1.366307 
-0.115991 -0.009574 -0.051319 -1.651725 0.247404 -0.247404 
-0.028974 -0.011911 -0.176111 -0.343178 1.168971 -1.168971 
0.029779 0.027930 -0.008869 0.106490 1.256807 1.124496 
-0.118513 -0.036054 -0.054883 -1.682337 0.109671 -0.109671 
-0.033670 0.049479 -0.113292 -0.401150 1.160102 -1.160102 
0.098311 -0.065974 -0.168163 1.395685 0.670636 -0.670653 
0.117164 -0.104664 -0.138579 1.666254 0.199146 -0.199146 
-0.007173 -0.177908 -0.009803 -0.083412 -1.192537 1.192537 
0.096880 -0.123739 -0.196347 0.636849 -0.870756 -1.298574 
0.012999 -0.005032 0.025481 0.043979 1.142349 1.244565 
0.116741 -0.128486 -0.165285 1.660976 0.208617 -0.225132 
0.115563 -0.113799 -0.158346 1.646428 0.264713 -0.264713 
0.105091 0.012892 -0.020531 1.076133 1.058403 0.753708 
-0.006137 -0.185507 -0.017342 -0.071375 -1.192893 1.192893 
-0.118320 -0.054556 -0.075556 -1.680022 0.122547 -0.122547 
-0.090340 -0.042597 -0.159289 -1.259701 0.793424 -0.793424 
-0.062058 -0.226052 -0.080083 -0.752236 -1.387135 0.589979 
-0.076922 -0.042041 -0.176492 -1.025120 0.949057 -0.949057 
-0.010048 0.030976 -0.136958 -0.116845 1.191546 -1.191546 
-0.068763 0.048283 -0.044158 -0.459028 1.412833 0.805003 
0.098428 0.011309 -0.090641 1.397628 0.668675 -0.668675 
0.050993 -0.132753 -0.198730 0.113007 -1.117132 -1.262994 
0.077583 -0.181351 -0.148287 0.212119 -1.229128 -1.140228 
-0.035703 -0.038468 -0.200620 -0.426259 1.156261 -1.156261 
0.115294 -0.118984 -0.165298 1.643092 0.275615 -0.275615 
0.118378 -0.158244 -0.144140 1.659455 -0.281216 -0.118503 
-0.042828 0.064455 -0.090720 -0.500823 1.479362 -0.636212 
0.081052 -0.062240 0.049802 0.871913 0.231297 1.425522 
0.046654 -0.058904 -0.216269 0.569224 1.124855 -1.124855 
-0.024903 -0.096552 0.066423 -0.287068 -0.811886 1.451387 
-0.115202 -0.116111 -0.163032 -1.641945 0.279362 -0.279362 
-0.040215 -0.225952 -0.099434 -0.154233 -1.423835 -0.896367 
0.087108 0.009014 -0.001680 0.534446 1.165398 1.099690 
-0.009699 0.049839 -0.118115 -0.112786 1.191666 -1.191666 
0.081449 0.046056 -0.050138 0.724822 1.410886 0.581363 
-0.045863 -0.214622 -0.114422 -0.127691 -1.324968 -1.041084 
-0.113586 -0.116817 -0.172298 -1.621171 0.333871 -0.333871 
-0.118785 -0.021963 -0.034919 -1.685531 0.076562 -0.074088 
0.117543 -0.063452 -0.093124 1.670776 0.173985 -0.173985 
0.011986 -0.231365 -0.093864 0.047573 -1.453961 -0.859821 
-0.038449 -0.070720 0.066885 -0.314193 0.359688 1.618773 
-0.115202 -0.067604 -0.020678 -1.641936 -0.279394 0.279394 
0.108602 -0.072790 -0.148045 1.553362 0.467075 -0.467075 
0.014899 -0.173209 -0.005889 0.173903 -1.187901 1.187901 
-0.092982 -0.131412 -0.192286 -0.452019 -1.007260 -1.278470 
0.089027 -0.001761 -0.120554 1.236566 0.811869 -0.811869 
0.053819 0.005288 -0.147939 0.669017 1.095868 -1.095868 
-0.029234 0.011960 -0.152162 -0.346394 1.168479 -1.168479 
0.019178 -0.085189 -0.235277 0.112723 -0.590699 -1.577218 
0.088989 0.001154 -0.117698 1.235909 0.812395 -0.812395 
-0.074894 -0.147745 -0.011301 -0.991776 -0.965510 0.965510 
0.111548 -0.180372 -0.115713 1.594031 -0.421376 0.366311 
0.060973 -0.167363 -0.018854 0.772463 -1.061464 1.061423 
-0.024400 0.067613 -0.094501 -0.278316 1.505410 -0.711018 
-0.027968 0.066252 -0.063508 -0.191418 1.562596 0.610038 
0.110656 0.000867 -0.067461 1.582315 0.418479 -0.418479 
-0.075998 -0.106163 0.029195 -1.009922 -0.956557 0.956557 
-0.044394 0.008340 0.010175 -0.160567 1.185704 1.193312 
-0.009958 -0.182576 -0.014637 -0.115800 -1.191577 1.191577 
0.056906 -0.061373 0.059786 0.448327 0.526251 1.540224 
-0.022131 -0.053500 -0.219526 -0.259690 1.180191 -1.180191 
-0.056918 -0.024704 0.037677 -0.258396 1.031779 1.312885 
-0.095601 -0.133749 -0.026044 -1.350922 -0.716001 0.716001 
0.051888 -0.204065 -0.049692 0.641950 -1.103932 1.103932 
0.040684 -0.034421 -0.194418 0.491158 1.142137 -1.142137 
-0.088016 -0.065745 -0.186152 -1.218784 0.826047 -0.826047 
0.013285 -0.093254 0.069680 0.148172 -0.608701 1.568323 
0.065183 0.057305 -0.083682 0.800144 1.388438 -0.524561 
0.118375 -0.142657 -0.159195 1.664913 -0.081544 -0.271936 
0.087194 0.025676 -0.096048 1.204284 0.837606 -0.837606 
0.088182 -0.056653 -0.176797 1.221681 0.823736 -0.823736 
-0.054349 -0.021957 0.035968 -0.237141 1.050727 1.301814 
-0.118904 -0.081333 -0.090234 -1.686931 0.051755 -0.051755 
0.048889 -0.033657 -0.189808 0.599867 1.116468 -1.116468 
0.112211 -0.014820 -0.000737 1.361629 0.628842 0.771985 
-0.013789 -0.036165 -0.203683 -0.160738 1.189086 -1.189086 
0.005486 -0.097623 0.068045 0.063179 -0.816741 1.474714 
-0.107783 -0.141404 -0.063388 -1.541827 -0.486434 0.486434 
0.092590 -0.160339 -0.166562 0.341304 -1.159597 -1.180735 
-0.054274 -0.198532 -0.045575 -0.675405 -1.093966 1.093966 
-0.060882 -0.062153 0.058850 -0.504522 0.473301 1.541043 
-0.061698 -0.124565 -0.204651 -0.166490 -1.077677 -1.291001 
-0.118985 -0.102423 -0.096248 -1.687871 -0.035906 0.035906 
-0.094864 -0.147429 -0.038223 -1.338737 -0.728349 0.728344 
0.092390 -0.136005 -0.188776 0.408848 -1.048702 -1.260236 
0.067913 0.027238 -0.014854 0.321656 1.267459 1.070368 
0.003090 -0.177564 -0.009220 0.035934 -1.193944 1.193944 
0.024002 0.070498 -0.079007 0.218955 1.669345 0.102662 
-0.053780 -0.127048 0.026204 -0.668471 -1.096031 1.096031 
-0.000727 -0.051748 -0.220233 -0.008447 1.194761 -1.194761 
0.100084 -0.122113 -0.023533 1.424972 -0.640970 0.640970 
0.092140 -0.130320 -0.016506 1.291413 -0.768142 0.768142 
-0.057088 -0.097094 -0.224775 -0.294944 -0.759412 -1.479285 
0.058998 -0.186407 -0.036377 0.742491 -1.073032 1.073032 
0.117963 -0.054556 -0.029572 1.675775 -0.146180 0.146180 
-0.117844 -0.138499 -0.112189 -1.674359 -0.154050 0.154050 
0.044109 0.065109 -0.068077 0.354679 1.598187 0.417400 
-0.022792 -0.226838 -0.100179 -0.077683 -1.399891 -0.943196 
-0.078833 -0.058295 0.050192 -0.768113 0.395558 1.450211 
0.005893 -0.113408 -0.217416 0.015611 -1.060872 -1.315247 
-0.117500 -0.049981 -0.019829 -1.670264 -0.176837 0.176837 
-0.052734 -0.017690 0.032733 -0.220724 1.074061 1.285571 
-0.019055 -0.005240 -0.171816 -0.223198 1.183471 -1.183471 
-0.002742 -0.122031 0.046335 -0.031878 -1.194064 1.194064 
-0.112798 -0.160121 -0.101063 -1.610820 -0.357252 0.357252 
-0.095566 0.032204 -0.038948 -0.940236 1.257615 0.623311 
-0.106697 0.001253 -0.008308 -1.084132 0.954510 0.871628 
-0.044817 0.002928 0.015393 -0.163670 1.165165 1.212909 
0.083334 0.010526 -0.001592 0.475263 1.180759 1.110421 
-0.117645 -0.087070 -0.058527 -1.671981 -0.167286 0.167286 
0.079962 -0.207771 -0.076818 1.077238 -0.918861 0.918861 
0.072457 -0.106804 0.032035 0.951690 -0.985292 0.985292 
-0.079644 -0.119061 0.012289 -1.071675 -0.922349 0.922349 
-0.081765 -0.001756 0.011300 -0.452876 1.113399 1.186782 
-0.031140 0.003489 0.016358 -0.106849 1.169470 1.215166 
0.050276 0.064711 -0.076279 0.494920 1.611714 0.053061 
-0.099310 -0.101322 -0.001166 -1.412184 -0.653927 0.653927 
-0.113378 -0.063940 -0.120368 -1.618427 0.340069 -0.340069 
0.065799 -0.214471 -0.111114 0.255558 -1.368849 -0.957329 
0.090982 -0.177033 -0.149839 0.333234 -1.217772 -1.123355 
-0.066235 0.042726 -0.034312 -0.366542 1.353573 0.942396 
-0.027631 -0.061573 -0.226184 -0.326603 1.171508 -1.171508 
0.109269 -0.095172 -0.168176 1.562772 0.451282 -0.451282 
0.077182 -0.183787 -0.049592 1.029396 -0.946949 0.946944 
0.115701 0.000192 -0.029762 1.602478 0.503850 0.159119 
-0.024246 -0.017774 0.036113 -0.090319 1.090067 1.287959 
-0.086199 -0.019539 0.024818 -0.569734 0.978000 1.253402 
-0.001641 0.070184 -0.093539 -0.018676 1.575759 -0.608170 
0.018700 -0.105390 0.061009 0.218941 -1.109292 1.253461 
-0.015226 -0.125710 -0.206873 -0.032544 -1.108763 -1.274885 
-0.088899 -0.069806 -0.188804 -1.234320 0.813661 -0.813661 
0.076093 -0.097622 0.037643 1.011495 -0.955779 0.955779 
0.036782 -0.233080 -0.086206 0.228187 -1.584246 -0.540477 
-0.008909 0.052499 -0.115502 -0.103607 1.191938 -1.191938 
0.025646 0.066343 -0.063084 0.169490 1.559289 0.625197 
0.026728 -0.086988 0.069598 0.284503 -0.316013 1.631774 
-0.073945 -0.014928 0.025598 -0.381982 1.056912 1.261451 
-0.119037 -0.044460 -0.040050 -1.688479 -0.025639 0.025639 
0.005031 -0.212521 -0.119333 0.012141 -1.292955 -1.088013 
-0.091967 -0.084851 0.029240 -1.288346 -0.768656 0.772516 
-0.032952 -0.176253 -0.013263 -0.392296 -1.161456 1.161456 
0.105370 -0.049492 -0.134789 1.506574 0.539069 -0.539220 
0.010832 -0.181845 -0.153062 0.018232 -1.218721 -1.170656 
0.027340 -0.184965 -0.149300 0.048650 -1.225863 -1.162233 
-0.092404 -0.033290 -0.146682 -1.296056 0.764441 -0.764441 
0.043443 0.025054 -0.133726 0.527248 1.134147 -1.134147 
-0.027438 -0.077661 -0.236034 -0.239938 -0.000387 -1.666985 
-0.016814 -0.017844 -0.184821 -0.196620 1.185859 -1.185859 
0.071092 -0.027145 -0.167324 0.929258 0.996361 -0.996361 
-0.115639 -0.015821 -0.059874 -1.647363 0.261659 -0.261659 
-0.071270 -0.177316 -0.037311 -0.932177 -0.994922 0.994922 
0.017676 -0.137721 0.029102 0.206837 -1.184942 1.184942 
-0.029960 0.054530 -0.109369 -0.355356 1.170981 -1.163205 
0.119031 -0.034965 -0.030337 1.688404 -0.026910 0.026910 
-0.113769 -0.069174 -0.014524 -1.623574 -0.328443 0.328443 
0.110765 -0.182073 -0.130265 1.247762 -1.013856 -0.516853 
0.111962 -0.047320 0.011556 1.585101 -0.148728 0.558058 
-0.114682 -0.092899 -0.042566 -1.635497 -0.300433 0.300433 
-0.052217 -0.069693 -0.223866 -0.646535 1.095534 -1.109495 
0.016801 -0.187076 -0.147419 0.029649 -1.228725 -1.159852 
0.095774 -0.174065 -0.066711 1.353774 -0.713111 0.713111 
-0.109853 -0.118258 -0.186557 -1.520609 0.086722 -0.725498 
0.058181 -0.069612 -0.220252 0.730229 1.077634 -1.077634 
0.111916 -0.088781 -0.025717 1.599218 -0.383454 0.383454 
-0.031212 0.048652 -0.034217 -0.134036 1.356086 0.999270 
-0.019668 0.019816 0.000698 -0.065711 1.225698 1.161457 
-0.099605 -0.088514 0.011041 -1.417055 -0.648992 0.648992 
0.074404 -0.119080 0.017844 0.983725 -0.969484 0.969484 
-0.117953 -0.028903 -0.053999 -1.675655 0.146846 -0.146846 
-0.117422 -0.071257 -0.102281 -1.669335 0.182003 -0.182003 
-0.118717 -0.055754 -0.040521 -1.684747 -0.088570 0.088570 
0.065303 0.005912 0.008791 0.281059 1.171990 1.184149 
0.071890 0.028798 -0.110597 0.942376 0.989889 -0.989889 
-0.022100 -0.048363 -0.214393 -0.259314 1.180225 -1.180225 
-0.032733 -0.212286 -0.049230 -0.389574 -1.161873 1.161873 
-0.069953 -0.191300 -0.138666 -0.182594 -1.252258 -1.119890 
0.012787 -0.025692 -0.193389 0.148838 1.190154 -1.190154 
0.113429 -0.111310 -0.167509 1.619092 0.338573 -0.338556 
-0.009044 -0.131525 0.036468 -0.105177 -1.191891 1.191891 
0.017607 0.015869 0.004902 0.058352 1.212499 1.175550 
-0.114577 0.004810 -0.035610 -1.596244 0.540114 0.071049 
0.027915 -0.235687 -0.080775 0.208421 -1.650180 -0.277461 
0.101414 -0.084478 -0.180055 1.446255 0.617151 -0.617151 
0.064215 -0.204898 -0.123856 0.182577 -1.295699 -1.069251 
0.054219 -0.140553 -0.191407 0.116220 -1.136653 -1.245133 
-0.099402 -0.043341 0.030859 -1.116000 0.436808 1.186968 
0.010789 -0.196070 -0.137916 0.020146 -1.246074 -1.141453 
0.092971 -0.011309 -0.123794 1.306050 0.756473 -0.756473 
-0.025740 -0.071180 0.069035 -0.202139 0.402365 1.627781 
0.065832 0.051862 -0.092260 0.844190 1.153912 -0.896423 
0.110098 -0.041127 -0.111335 1.574455 0.431673 -0.431673 
0.101815 -0.143148 -0.048612 1.452361 -0.609253 0.609253 
0.066228 0.058640 -0.073830 0.716668 1.528372 -0.020224 
0.118916 -0.034217 -0.042722 1.687068 0.049453 -0.049453 
-0.014316 -0.085762 -0.235355 -0.077471 -0.630583 -1.564661 
0.029229 -0.165103 -0.169549 0.049657 -1.190743 -1.198168 
0.118557 -0.116748 -0.098403 1.682853 -0.106800 0.106800 
0.112133 -0.015827 -0.077904 1.602078 0.377015 -0.376981 
0.001986 -0.213283 -0.044873 0.023102 -1.194324 1.194324 
0.015088 -0.062804 -0.230091 0.176112 1.184994 -1.190404 
-0.017454 -0.173503 -0.006640 -0.204211 -1.185178 1.185178 
-0.050085 -0.087832 0.062956 -0.585987 -0.552584 1.481187 
-0.116167 -0.164792 -0.145232 -1.438969 -0.713672 -0.516327 
-0.088500 -0.063267 0.044613 -1.078867 0.027197 1.297001 
0.056940 -0.124743 0.026633 0.712808 -1.082768 1.082878 
0.002987 -0.221255 -0.052903 0.034740 -1.193980 1.193980 
0.113951 -0.099068 -0.152896 1.625956 0.323065 -0.323065 
-0.115030 -0.169798 -0.121745 -1.639803 -0.287763 0.284942 
0.087062 -0.033661 -0.155594 1.201977 0.839447 -0.839447 
0.057230 -0.145478 0.005726 0.716886 -1.081630 1.081585 
-0.048198 -0.007539 0.024631 -0.185937 1.122538 1.249217 
-0.017792 -0.191390 -0.142805 -0.031958 -1.237033 -1.150949 
0.001902 -0.184046 -0.015630 0.022110 -1.194355 1.194355 
0.013477 -0.106046 0.061308 0.156974 -1.119228 1.255168 
-0.049942 -0.183553 -0.149408 -0.098343 -1.226534 -1.158387 
-0.019055 -0.154684 -0.180089 -0.032434 -1.172906 -1.216218 
0.087048 -0.170013 -0.158262 0.279152 -1.197130 -1.159392 
0.062275 0.020214 -0.005389 0.264720 1.234738 1.122892 
-0.022391 -0.130347 0.035632 -0.262781 -1.179914 1.179914 
-0.110019 -0.117757 -0.047278 -1.573329 -0.433563 0.433563 
-0.089498 -0.169412 -0.158249 -0.306402 -1.192741 -1.156813 
-0.090870 -0.107282 -0.208569 -0.791319 -0.545037 -1.385281 
0.008274 -0.056781 -0.224821 0.096230 1.192156 -1.192156 
-0.085307 -0.178573 -0.149673 -0.272071 -1.222414 -1.134617 
0.059402 -0.050608 0.054462 0.391007 0.746213 1.463683 
0.114782 -0.157894 -0.108215 1.636734 -0.296392 0.296392 
0.096910 -0.095568 0.009473 1.372547 -0.694090 0.694090 
-0.048658 -0.051957 0.057674 -0.290726 0.775139 1.473176 
0.013175 -0.184309 -0.016680 0.153460 -1.189740 1.189740 
0.074854 -0.045677 0.046884 0.565411 0.733869 1.412145 
-0.001000 0.015526 0.005704 -0.003214 1.210714 1.178918 
0.106047 -0.121000 -0.037461 1.516885 -0.525810 0.525810 
-0.016243 -0.169309 -0.165754 -0.026739 -1.197718 -1.191937 
-0.040307 -0.137043 -0.195715 -0.080584 -1.133601 -1.250799 
0.016802 -0.140218 -0.193803 0.030648 -1.145622 -1.241979 
0.073177 -0.193765 -0.055635 0.963533 -0.979448 0.979448 
-0.003519 -0.114530 -0.216541 -0.008570 -1.067554 -1.309971 
0.078016 -0.139676 -0.006301 1.043105 -0.940181 0.940181 
0.089566 -0.008908 -0.126837 1.246082 0.804281 -0.804281 
-0.011254 -0.235638 -0.085501 -0.063225 -1.566079 -0.629229 
0.092977 -0.052628 -0.165103 1.306148 0.756395 -0.756395 
-0.104641 0.005941 -0.081254 -1.495442 0.553539 -0.553539 
0.049187 -0.187455 -0.145323 0.098429 -1.234722 -1.149656 
-0.086853 -0.067080 -0.189348 -1.198284 0.842389 -0.842389 
-0.103182 -0.115509 -0.024527 -1.473220 -0.582316 0.582240 
0.097032 -0.053344 -0.158137 1.374555 0.692055 -0.692055 
0.052153 -0.066600 -0.220815 0.645658 1.102828 -1.102828 
-0.085075 0.025775 -0.098782 -1.167050 0.862535 -0.862535 
0.051151 -0.015148 0.030888 0.207633 1.088130 1.276175 
0.072088 -0.085454 0.051783 0.935450 -0.705763 1.212979 
-0.090402 -0.132757 -0.016164 -1.260796 -0.792552 0.792552 
0.042830 -0.016047 -0.175097 0.519220 1.135925 -1.135925 
-0.002684 0.012226 -0.156143 -0.031221 1.194085 -1.194085 
-0.095508 -0.190753 -0.082858 -1.349385 -0.717557 0.717557 
-0.073404 -0.123483 -0.203711 -0.250057 -1.044055 -1.305025 
0.008446 -0.001795 -0.169824 0.098216 1.192099 -1.192099 
0.051732 -0.005742 -0.160207 0.639756 1.104586 -1.104586 
-0.117196 -0.023884 -0.007340 -1.631593 0.197002 0.386866 
-0.010241 -0.061066 -0.228990 -0.119094 1.191479 -1.191479 
-0.026441 -0.129349 0.035624 -0.311901 -1.173757 1.173757 
0.059236 0.015302 -0.134545 0.746094 1.071637 -1.071637 
-0.023776 -0.154869 -0.179774 -0.040780 -1.172914 -1.215962 
-0.077691 0.036123 -0.097573 -1.037755 0.942822 -0.942822 
-0.101611 -0.184683 -0.089617 -1.449254 -0.613287 0.613257 
-0.055050 -0.094675 -0.226420 -0.301685 -0.711480 -1.502510 
0.108792 -0.114176 -0.039562 1.556044 -0.462575 0.462575 
-0.058624 -0.139031 -0.192380 -0.131854 -1.130184 -1.249493 
-0.021373 0.042835 -0.123326 -0.250703 1.180999 -1.180999 
-0.044851 -0.007626 0.025190 -0.169715 1.123701 1.250502 
0.064132 0.042275 -0.103804 0.820405 1.042907 -1.042907 
0.084588 -0.178745 -0.053578 1.158502 -0.867896 0.867896 
-0.057431 -0.040850 0.049267 -0.307152 0.902365 1.394917 
0.055424 -0.207272 -0.054996 0.691553 -1.089154 1.089154 
-0.064385 0.008307 -0.137576 -0.824238 1.041425 -1.041425 
-0.060415 -0.002701 0.018099 -0.250793 1.135815 1.225627 
-0.015960 -0.020305 0.038739 -0.059946 1.081901 1.296693 
-0.114622 -0.056667 -0.005937 -1.634749 -0.302880 0.302880 
0.117848 -0.027830 -0.054107 1.674396 0.153849 -0.153849 
-0.001050 -0.167779 -0.167493 -0.001704 -1.195234 -1.194772 
0.001455 -0.055344 -0.223786 0.016920 1.194509 -1.194509 
0.046999 -0.217312 -0.060099 0.573750 -1.123858 1.123848 
-0.112619 -0.166598 -0.106726 -1.608462 -0.362584 0.362571 
0.116720 -0.043081 -0.006363 1.660629 -0.189490 0.243282 
0.094246 0.036300 -0.072007 1.316833 0.928379 -0.502829 
-0.112837 -0.096615 -0.155493 -1.611335 0.356086 -0.356086 
0.117559 -0.160153 -0.146878 1.570955 -0.505572 -0.358951 
0.118162 -0.131170 -0.108416 1.678153 -0.132949 0.132949 
0.007422 -0.220496 -0.052407 0.086310 -1.192450 1.192450 
-0.103877 -0.118238 -0.029056 -1.483784 -0.568617 0.568617 
0.061690 -0.040812 -0.188770 0.783359 1.057230 -1.057230 
0.068580 -0.212358 -0.069709 0.887929 -1.016706 1.016805 
0.071820 0.007328 0.005752 0.333292 1.175652 1.167116 
0.100507 -0.038190 -0.135911 1.431944 0.633905 -0.633905 
0.061364 -0.010475 0.024944 0.264235 1.100758 1.254605 
-0.003496 0.008453 -0.159869 -0.040646 1.193806 -1.193806 
0.107883 -0.021680 -0.099359 1.543240 0.484063 -0.484063 
0.042656 -0.018607 -0.177732 0.516949 1.136427 -1.136427 
-0.030633 -0.234121 -0.071865 -0.349073 -1.481449 0.723268 
0.003532 -0.068955 0.069931 0.027694 0.508930 1.609896 
0.062169 -0.181152 -0.150757 0.134901 -1.224322 -1.157055 
-0.001199 0.063083 -0.104992 -0.013968 1.290269 -1.090498 
0.083986 0.038780 -0.038311 0.656327 1.347008 0.778847 
-0.118924 -0.030891 -0.022819 -1.687162 -0.039710 0.054149 
-0.077106 -0.220015 -0.091312 -0.840479 -1.459465 0.000106 
0.105262 -0.077782 -0.163363 1.504904 0.541302 -0.541302 
-0.020112 0.000135 0.020322 -0.067632 1.159213 1.227699 
-0.116100 -0.129041 -0.169560 -1.650733 0.165706 -0.313492 
-0.018534 -0.185745 -0.148785 -0.032132 -1.226240 -1.162429 
0.015414 -0.218759 -0.111484 0.037628 -1.325494 -1.047454 
0.065682 -0.025152 0.036110 0.327328 1.013936 1.311519 
-0.099628 0.022409 -0.027425 -0.945793 1.175327 0.755878 
0.083430 -0.006880 0.015330 0.484949 1.080341 1.204574 
0.113262 -0.077905 -0.020951 1.616907 -0.343504 0.343504 
-0.031797 0.047050 -0.116293 -0.378029 1.163639 -1.163639 
0.104406 -0.108545 -0.194819 1.463094 0.283815 -0.788133 
0.114276 -0.076392 -0.024038 1.630225 -0.313424 0.313424 
0.092307 -0.107043 0.006504 1.294344 -0.765805 0.765805 
-0.067509 -0.138215 0.005262 -0.871651 -1.023094 1.023094 
0.005957 -0.209430 -0.041254 0.069265 -1.192956 1.192956 
-0.041250 0.065936 -0.088074 -0.467625 1.547436 -0.480158 
0.096568 -0.186497 -0.080760 1.366894 -0.699817 0.699817 
-0.077069 -0.188149 -0.053843 -1.027554 -0.947855 0.947855 
0.101375 -0.053860 0.030931 1.339333 0.025345 1.025090 
0.116862 -0.060280 -0.024253 1.662526 -0.212108 0.212108 
-0.113590 -0.121183 -0.065716 -1.621207 -0.333785 0.333799 
-0.039151 -0.201653 -0.130489 -0.082247 -1.265952 -1.116529 
0.057252 0.025467 -0.010193 0.238760 1.255893 1.104736 
0.051947 -0.208682 -0.054345 0.642761 -1.103690 1.103690 
0.118384 -0.063524 -0.083797 1.680798 0.118232 -0.118232 
0.096955 0.021658 -0.023283 0.829307 1.200050 0.850293 
-0.113792 -0.096117 -0.041565 -1.623858 -0.327813 0.327791 
-0.023215 -0.013650 -0.179482 -0.272548 1.179035 -1.179035 
-0.073239 -0.076989 0.054411 -0.893173 -0.308151 1.396462 
0.036874 -0.201782 -0.130490 0.077005 -1.265541 -1.117333 
0.048864 -0.072225 -0.228103 0.597018 0.980741 -1.237139 
0.043068 0.016147 0.002418 0.155343 1.215542 1.163741 
0.039095 0.040734 -0.025065 0.159359 1.316111 1.047697 
0.098546 -0.132276 -0.030566 1.399568 -0.666710 0.666710 
0.013281 0.013619 -0.153990 0.154699 1.189628 -1.189628 
0.096895 -0.071241 -0.176310 1.372312 0.694326 -0.694326 
0.103862 -0.143724 -0.054506 1.483566 -0.568898 0.568898 
-0.063814 -0.187573 -0.041250 -0.815579 -1.044773 1.044773 
0.085285 -0.099191 0.025104 1.170729 -0.860228 0.860228 
0.097987 -0.176455 -0.073606 1.390334 -0.676068 0.676068 
-0.042869 0.027304 -0.009686 -0.161410 1.257975 1.116698 
-0.102751 0.024700 -0.066566 -1.464518 0.688714 -0.478846 
-0.039673 0.007528 0.011528 -0.140540 1.183067 1.198320 
0.049904 -0.167881 -0.012332 0.614105 -1.112226 1.112226 
0.004491 -0.019695 -0.187957 0.052238 1.193461 -1.193461 
0.112614 -0.005746 -0.065640 1.608402 0.362715 -0.362715 
0.105283 -0.090719 -0.005193 1.505229 -0.540883 0.540883 
-0.037660 -0.118228 0.043099 -0.451620 -1.150890 1.150890 
0.063046 0.035766 -0.023947 0.303161 1.307722 1.025762 
-0.117190 -0.111908 -0.145534 -1.666561 0.197438 -0.197438 
-0.088391 -0.031219 -0.151028 -1.225380 0.820787 -0.820787 
0.063904 -0.171814 -0.025561 0.816954 -1.044241 1.044241 
-0.109992 -0.037716 -0.108285 -1.572949 0.434200 -0.434200 
0.035179 -0.181246 -0.018934 0.419781 -1.157251 1.157251 
0.028725 -0.202484 -0.038207 0.340102 -1.169443 1.169443 
0.107588 -0.129910 -0.051237 1.539083 -0.491040 0.491040 
0.090055 -0.063384 0.043333 1.125525 -0.015092 1.257017 
0.024387 -0.159979 0.005620 0.286529 -1.177639 1.177639 
-0.073495 -0.009776 -0.147593 -0.968779 0.976859 -0.976859 
0.029390 -0.132950 0.031125 0.348311 -1.168185 1.168185 
0.118929 -0.112154 -0.120201 1.687225 0.046788 -0.046788 
0.000004 -0.003934 0.024704 -0.000069 1.146851 1.241224 
-0.045326 -0.080952 0.066208 -0.469546 -0.122907 1.618112 
0.011340 -0.122463 0.045395 0.131874 -1.191100 1.191100 
-0.014304 -0.228140 -0.098826 -0.049975 -1.406426 -0.935538 
-0.074912 -0.122533 0.013892 -0.992086 -0.965358 0.965358 
0.060263 -0.036219 -0.185276 0.761693 1.065607 -1.065607 
-0.114764 -0.113961 -0.064161 -1.636508 -0.297132 0.297132 
0.118722 -0.149816 -0.152508 1.664106 -0.181954 -0.212276 
0.089441 -0.208386 -0.090447 1.241805 -0.885859 0.720535 
0.108549 -0.013118 -0.088551 1.552625 0.468311 -0.468311 
0.003194 0.071993 -0.085975 0.031148 1.677031 -0.192636 
-0.049332 0.053487 -0.044967 -0.268543 1.420746 0.874206 
0.063943 -0.073597 -0.219818 0.817515 1.038096 -1.049868 
-0.003656 -0.034128 0.050060 -0.016231 1.011472 1.353360 
-0.044706 0.066410 -0.079946 -0.455501 1.623505 -0.066704 
0.032374 -0.122955 -0.208593 0.071896 -1.094603 -1.285547 
-0.040932 -0.154972 0.004915 -0.494404 -1.141418 1.141418 
0.108788 -0.126156 -0.051529 1.555993 -0.462658 0.462658 
0.045122 -0.179911 -0.021872 0.549194 -1.129290 1.129290 
0.118998 -0.109277 -0.103572 1.688033 -0.033168 0.033168 
0.035012 -0.219553 -0.057191 0.417714 -1.157567 1.157567 
0.079735 0.042246 -0.088834 1.073361 0.969210 -0.870649 
0.065861 -0.022381 0.033904 0.321487 1.031503 1.299268 
-0.028656 -0.070129 -0.233626 -0.332004 0.877249 -1.402152 
-0.094878 0.038223 -0.063596 -1.267939 1.096610 -0.169701 
-0.001300 0.019107 -0.149343 -0.015125 1.194561 -1.194561 
-0.077850 -0.097011 0.036527 -1.040383 -0.941526 0.941526 
0.108502 -0.100365 -0.024773 1.551957 -0.469433 0.469433 
0.088838 -0.042019 -0.161113 1.233250 0.814514 -0.814514 
0.118945 -0.119266 -0.111736 1.687404 -0.043776 0.043776 
-0.067010 -0.084729 -0.225001 -0.752545 0.243564 -1.492430 
-0.061689 -0.052723 0.054908 -0.432799 0.691634 1.479602 
-0.107839 -0.056920 -0.134748 -1.542613 0.485114 -0.485114 
0.050838 0.063833 -0.083948 0.570018 1.548165 -0.347140 
-0.114184 -0.093981 -0.146750 -1.629016 0.316152 -0.316152 
-0.008980 -0.096953 -0.229507 -0.031990 -0.911081 -1.422414 
-0.054938 -0.104391 0.048173 -0.684710 -1.089577 1.092808 
0.118884 -0.059132 -0.068726 1.686692 0.055784 -0.055784 
0.013836 -0.232229 -0.064771 0.161104 -1.232000 1.143900 
-0.108666 -0.182096 -0.107058 -1.554271 -0.465549 0.465549 
0.005342 0.018165 0.002943 0.017525 1.219408 1.169818 
-0.094440 -0.087797 0.022273 -1.331738 -0.735439 0.735439 
0.032998 0.039064 -0.022157 0.129026 1.304340 1.066508 
-0.037976 -0.186883 -0.146731 -0.070912 -1.231041 -1.155603 
0.056573 -0.216909 -0.065316 0.707682 -1.084299 1.084400 
0.007309 0.069274 -0.095016 0.080986 1.536485 -0.690133 
0.114377 -0.108788 -0.056889 1.631539 -0.310455 0.310455 
-0.082384 -0.068591 -0.196514 -1.119769 0.892188 -0.892188 
-0.024709 -0.141770 0.023730 -0.290521 -1.177027 1.177027 
-0.119166 -0.089634 -0.089684 -1.689983 0.000289 -0.000289 
-0.014092 -0.219097 -0.111111 -0.039519 -1.326809 -1.045767 
0.096637 -0.046154 0.034324 1.067493 0.428690 1.233595 
0.108582 -0.011978 0.002369 1.174482 0.788248 0.922263 
-0.053527 -0.138750 -0.193124 -0.115611 -1.132197 -1.249241 
0.102176 -0.034739 -0.128335 1.457878 0.602118 -0.602118 
-0.075227 -0.151649 -0.178576 -0.194898 -1.151507 -1.221321 
-0.019919 0.062001 -0.053019 -0.114104 1.471657 0.821365 
-0.097604 0.012731 -0.090896 -1.384008 0.682476 -0.682476 
0.024419 -0.126140 -0.206201 0.051226 -1.108018 -1.274948 
0.098728 -0.151820 -0.172644 0.459362 -1.105488 -1.191578 
-0.044590 -0.116705 -0.212906 -0.114203 -1.056446 -1.313941 
0.060610 -0.172444 -0.023655 0.766961 -1.063571 1.063571 
-0.102765 -0.112927 -0.020860 -1.466851 -0.590516 0.590516 
0.072257 0.003271 -0.135764 0.948401 0.986916 -0.986916 
0.030430 -0.046726 -0.210483 0.361150 1.166221 -1.166221 
-0.042653 -0.110235 0.048893 -0.516902 -1.136439 1.136439 
-0.035932 -0.023864 0.040114 -0.143988 1.055838 1.311254 
-0.038060 -0.081860 -0.233940 -0.297383 -0.241633 -1.641091 
-0.090259 -0.150466 -0.033644 -1.258284 -0.794553 0.794553 
-0.049921 0.022174 -0.133364 -0.614347 1.112155 -1.112155 
-0.027787 0.067813 -0.092335 -0.315055 1.537925 -0.617289 
-0.061581 -0.081766 0.059762 -0.721290 -0.369588 1.477359 
-0.045858 -0.169617 -0.164115 -0.084372 -1.198578 -1.188352 
0.117538 -0.130165 -0.100433 1.670712 -0.174342 0.174342 
0.080128 -0.188780 -0.058035 1.080165 -0.917026 0.917026 
0.086949 -0.164523 -0.042409 1.199979 -0.841039 0.841039 
-0.063800 -0.197977 -0.132063 -0.162570 -1.268414 -1.104785 
-0.058540 -0.042440 -0.192822 -0.735552 1.075786 -1.075643 
0.109147 -0.034888 0.016188 1.382085 0.352240 0.904324 
0.104915 0.008198 -0.078285 1.499621 0.548136 -0.548136 
-0.025546 -0.098095 -0.228023 -0.091431 -0.908703 -1.421303 
0.081555 -0.131605 -0.195338 0.290357 -1.067563 -1.277080 
0.092295 -0.027279 0.027400 0.741915 0.854942 1.253508 
-0.022693 -0.045430 -0.211355 -0.266347 1.179593 -1.179593 
-0.089153 -0.169963 -0.051372 -1.238799 -0.810090 0.810090 
0.034343 -0.172875 -0.161513 0.059679 -1.204414 -1.183975 
0.044821 -0.021592 0.037196 0.183128 1.061954 1.301575 
0.072199 0.054488 -0.079128 0.894228 1.370977 -0.402977 
0.005568 -0.187843 -0.146796 0.009903 -1.229416 -1.159465 
0.020548 0.069081 -0.092469 0.228373 1.565454 -0.590881 
0.111683 -0.019695 -0.083815 1.596164 0.390353 -0.390353 
0.095892 -0.156794 -0.168980 0.395086 -1.138250 -1.184364 
-0.038679 -0.223739 -0.062860 -0.464954 -1.147937 1.147937 
0.050335 -0.057971 -0.213265 0.620156 1.110425 -1.110425 
0.046060 -0.157226 -0.176358 0.085982 -1.174954 -1.211605 
0.119020 -0.067769 -0.062812 1.688291 -0.028821 0.028821 
-0.009795 -0.044489 -0.212438 -0.113908 1.191632 -1.191632 
-0.111796 -0.035112 -0.098719 -1.597650 0.387000 -0.387000 
0.105412 -0.073206 0.011987 1.507186 -0.538353 0.538353 
-0.036234 -0.206787 -0.044831 -0.432986 -1.155014 1.155014 
0.117113 -0.047066 -0.081444 1.665640 0.201930 -0.201930 
0.111813 -0.101806 -0.165335 1.597876 0.386489 -0.386489 
-0.004303 -0.208082 -0.124528 -0.008666 -1.277151 -1.106620 
0.050049 -0.112346 -0.215799 0.151459 -1.018309 -1.339872 
-0.061216 -0.071344 0.060667 -0.603945 0.155578 1.569694 
-0.117837 -0.074818 -0.101210 -1.674273 0.154535 -0.154535 
0.003992 0.001555 -0.166737 0.046434 1.193633 -1.193633 
0.089046 -0.040253 0.037149 0.786178 0.692846 1.324553 
0.003537 -0.047887 -0.216206 0.041131 1.193791 -1.193791 
-0.056489 -0.112113 0.039530 -0.706484 -1.084706 1.084706 
0.018317 -0.013624 0.032936 0.065425 1.109419 1.273041 
-0.026312 -0.048113 -0.213126 -0.310311 1.174001 -1.174001 
0.019179 -0.098640 -0.228064 0.067700 -0.927808 -1.410633 
-0.050523 -0.067157 -0.222338 -0.622792 1.109639 -1.109639 
0.060549 -0.132942 -0.197588 0.147082 -1.110906 -1.264934 
-0.114933 -0.126663 -0.173974 -1.629227 0.143963 -0.416964 
-0.108848 0.007644 -0.019292 -1.226680 0.937296 0.678180 
0.118776 -0.079009 -0.092265 1.685428 0.077076 -0.077076 
0.004211 0.040319 -0.021783 0.016190 1.301736 1.077397 
-0.045956 -0.112549 0.045123 -0.560096 -1.126877 1.126877 
-0.075768 -0.120142 -0.205828 -0.291535 -1.007061 -1.325136 
-0.037108 -0.042263 0.053668 -0.178221 0.928765 1.400408 
-0.074859 -0.141439 -0.004961 -0.991195 -0.965798 0.965798 
0.090050 -0.156429 -0.039273 1.254590 -0.797499 0.797499 
0.032687 0.017787 0.001894 0.112780 1.220215 1.163781 
0.090407 -0.106501 -0.209164 0.800624 -0.529447 -1.385810 
0.083000 -0.015538 0.022994 0.499844 1.026088 1.245826 
0.098817 -0.014500 -0.115661 1.404028 0.662191 -0.662191 
0.112433 -0.160527 -0.099813 1.606024 -0.368085 0.368085 
-0.119112 -0.066871 -0.065036 -1.689368 -0.010669 0.010669 
-0.077880 -0.110272 0.023236 -1.040888 -0.941276 0.941276 
0.094293 -0.015822 -0.126188 1.329327 0.737881 -0.737883 
-0.114859 -0.079357 -0.128535 -1.637684 0.293289 -0.293289 
-0.011118 0.071908 -0.083095 -0.108483 1.683238 -0.050901 
-0.103975 -0.068208 -0.157132 -1.485294 0.566664 -0.566664 
-0.006323 -0.099992 -0.227519 -0.020334 -0.952342 -1.395499 
0.062284 -0.091745 -0.225872 0.448950 -0.502364 -1.547352 
-0.030729 -0.109710 -0.219465 -0.080811 -1.026056 -1.340222 
-0.107514 0.018769 -0.058506 -1.532590 0.617708 -0.342024 
0.077826 0.039893 -0.035745 0.528062 1.351268 0.864477 
-0.021230 0.028311 -0.008588 -0.073983 1.256189 1.127911 
0.016230 0.005690 0.015161 0.053451 1.178658 1.209690 
-0.080131 -0.057438 -0.188179 -1.080202 0.917002 -0.917002 
-0.028311 -0.176683 -0.012280 -0.334995 -1.170223 1.170223 
-0.005292 -0.145046 -0.189502 -0.009420 -1.156291 -1.232424 
-0.068129 0.038070 -0.028567 -0.363424 1.324909 0.983407 
0.118056 -0.155411 -0.131461 1.676877 -0.140042 0.140042 
0.016528 -0.091780 0.069787 0.182927 -0.539203 1.587442 
-0.019525 -0.216714 -0.113890 -0.049672 -1.315481 -1.059569 
-0.114370 -0.108183 -0.056259 -1.631465 -0.310619 0.310619 
-0.061496 -0.134109 -0.196443 -0.149717 -1.113181 -1.262540 
-0.063700 0.039307 -0.028699 -0.320688 1.328019 0.994426 
0.036254 -0.147039 -0.186688 0.067066 -1.156612 -1.230310 
-0.002086 0.055282 -0.113122 -0.024272 1.195144 -1.193436 
-0.068442 -0.174907 -0.032148 -0.885815 -1.017618 1.017618 
-0.100234 -0.166817 -0.157364 -0.480195 -1.164598 -1.125210 
0.096531 -0.077215 0.028478 1.366211 -0.666389 0.732605 
-0.052365 0.040582 -0.027331 -0.234291 1.324613 1.022637 
0.059684 -0.154766 -0.005264 0.752907 -1.069004 1.069004 
0.099844 0.026155 -0.033862 1.011977 1.188124 0.642818 
-0.024977 -0.149639 -0.184735 -0.044114 -1.163163 -1.225160 
-0.115994 -0.114319 -0.156042 -1.651765 0.247271 -0.247271 
0.077600 -0.172578 -0.038793 1.036276 -0.943552 0.943552 
-0.075260 -0.096528 -0.219938 -0.598448 -0.480359 -1.502990 
0.118851 -0.122609 -0.133307 1.686311 0.062202 -0.062202 
0.017720 0.059080 -0.047884 0.084995 1.433591 0.889776 
0.061749 0.046150 -0.037626 0.332034 1.373958 0.925785 
-0.114314 -0.042154 -0.094332 -1.630728 0.312283 -0.312283 
-0.062020 -0.011795 0.025943 -0.271152 1.093310 1.259469 
-0.048555 -0.109347 0.047003 -0.595189 -1.117862 1.117862 
-0.095796 0.019085 -0.018832 -0.772217 1.190784 0.914483 
0.058430 -0.061373 -0.211841 0.733871 1.076364 -1.076364 
0.101418 0.013910 -0.081657 1.446314 0.617075 -0.617075 
-0.075271 0.050398 -0.053693 -0.647834 1.453927 0.564844 
0.018560 -0.009630 -0.176296 0.217327 1.183999 -1.183999 
-0.099707 -0.135880 -0.036534 -1.418753 -0.647272 0.647272 
0.097556 -0.076021 -0.179748 1.383204 0.683291 -0.683291 
0.111559 -0.165169 -0.100487 1.594542 -0.394020 0.394020 
0.113188 -0.058624 -0.001338 1.615946 -0.345674 0.345674 
0.029277 -0.163384 0.000725 0.346921 -1.168398 1.168398 
-0.009079 -0.221389 -0.053397 -0.105576 -1.191879 1.191879 
0.119045 -0.056863 -0.061018 1.688567 0.024164 -0.024164 
-0.024046 0.062752 -0.055032 -0.139122 1.488760 0.786443 
0.005872 -0.222663 -0.054482 0.068291 -1.192986 1.192986 
0.106266 0.020458 -0.061369 1.516599 0.631641 -0.392987 
-0.033860 -0.170680 -0.163761 -0.058484 -1.200329 -1.188175 
0.052174 -0.064067 -0.218270 0.645950 1.102740 -1.102740 
-0.033999 0.032352 -0.014303 -0.126527 1.275184 1.101582 
-0.070297 -0.090749 0.049617 -0.914668 -0.878680 1.113451 
-0.106720 -0.099317 -0.180921 -1.526837 0.511593 -0.511593 
-0.018197 0.025873 -0.005714 -0.062273 1.246664 1.139155 
-0.112015 -0.060900 0.001716 -1.600519 -0.380262 0.380769 
0.080196 -0.069983 0.050795 0.963155 -0.087366 1.383655 
0.020796 -0.055836 -0.222101 0.243852 1.181616 -1.181616 
-0.060263 -0.190863 -0.140505 -0.136331 -1.246236 -1.133236 
0.068359 -0.016208 -0.159032 0.884551 1.018107 -1.018107 
-0.117863 -0.120383 -0.146483 -1.674585 0.152791 -0.152791 
0.097894 -0.121878 -0.018838 1.388789 -0.677631 0.677631 
0.016533 -0.213915 -0.046887 0.193285 -1.186160 1.186160 
-0.087097 -0.152438 -0.030559 -1.202579 -0.838965 0.838965 
-0.111574 -0.070479 -0.135093 -1.594735 0.393582 -0.393582 
0.064285 -0.124454 -0.204392 0.180891 -1.073043 -1.292890 
-0.044918 -0.125315 -0.205718 -0.103212 -1.096043 -1.282130 
0.027262 -0.222691 -0.057968 0.322035 -1.172206 1.172206 
-0.082638 -0.116198 0.011408 -1.124244 -0.889383 0.889383 
0.010785 -0.216780 -0.114124 0.026198 -1.312491 -1.064151 
-0.042497 -0.009561 0.027247 -0.159526 1.117262 1.257740 
0.075191 -0.013914 -0.150065 0.996649 0.963106 -0.963106 
0.057386 -0.139248 -0.192300 0.127639 -1.131605 -1.248619 
-0.087078 -0.051169 -0.173078 -1.202249 0.839229 -0.839229 
-0.033834 -0.232852 -0.087837 -0.192253 -1.553941 -0.631793 
-0.059598 0.033110 -0.019647 -0.266097 1.291082 1.057359 
-0.089301 -0.143321 -0.024965 -1.241391 -0.808023 0.808023 
-0.068393 -0.127582 -0.201170 -0.197838 -1.079665 -1.284773 
-0.049787 -0.231260 -0.081583 -0.475351 -1.616781 0.012778 
-0.062287 -0.038644 -0.186142 -0.792404 1.053733 -1.053733 
-0.066798 -0.069781 -0.213807 -0.860856 1.027288 -1.027248 
-0.075237 -0.219434 -0.097920 -0.566645 -1.490649 -0.552385 
0.008715 -0.033562 -0.201575 0.101356 1.192004 -1.192004 
0.114501 -0.115162 -0.166492 1.633180 0.306747 -0.306747 
0.053413 -0.118734 -0.210422 0.143243 -1.058143 -1.309838 
-0.097672 -0.169628 -0.155523 -0.426003 -1.183960 -1.127799 
0.032731 -0.205821 -0.042763 0.389569 -1.161873 1.161873 
-0.076270 -0.217407 -0.101816 -0.503950 -1.457758 -0.687722 
0.018078 -0.082568 0.071256 0.176921 -0.044341 1.676845 
-0.080436 -0.013224 -0.143582 -1.085578 0.913631 -0.913631 
0.013723 -0.119658 -0.212105 0.030832 -1.087966 -1.292710 
-0.057788 -0.189007 -0.038134 -0.724706 -1.079278 1.079278 
0.118921 -0.085353 -0.093678 1.687129 0.048407 -0.048407 
-0.007988 -0.033210 -0.201265 -0.092893 1.192256 -1.192256 
0.029709 -0.059162 -0.223138 0.352248 1.167584 -1.167584 
0.014201 -0.038024 -0.205469 0.165615 1.188646 -1.188646 
0.105274 0.023930 -0.058712 1.488657 0.742534 -0.287041 
0.037430 0.014154 -0.147276 0.448616 1.151554 -1.151554 
-0.070273 -0.111510 -0.213295 -0.295665 -0.940193 -1.372349 
0.048681 -0.143495 0.012780 0.596955 -1.117337 1.117337 
0.118330 -0.017933 -0.038813 1.680152 0.123133 -0.120495 
-0.051241 -0.102327 0.052386 -0.632856 -1.082445 1.130128 
-0.117885 -0.097855 -0.072004 -1.674851 -0.151321 0.151321 
-0.117728 -0.054489 -0.082102 -1.672973 0.161760 -0.161760 
-0.047157 -0.054782 -0.211923 -0.575807 1.123399 -1.123399 
-0.028409 -0.004963 0.024522 -0.099375 1.139754 1.243669 
0.047014 0.047196 -0.034950 0.216917 1.360967 0.977971 
0.081875 -0.058843 0.048578 0.845872 0.334066 1.421456 
0.113517 -0.007879 -0.009604 1.418643 0.655130 0.635820 
-0.035104 -0.110083 0.052251 -0.418850 -1.156534 1.158252 
-0.097243 -0.116399 -0.012035 -1.378031 -0.688533 0.688533 
0.043023 0.007348 -0.151618 0.521749 1.135366 -1.135366 
-0.038302 0.017137 -0.143910 -0.460018 1.149031 -1.149031 
-0.079856 -0.010650 0.020012 -0.442283 1.066197 1.233218 
0.105944 -0.132587 -0.185003 0.859872 -0.828103 -1.192498 
-0.082657 -0.109110 0.018472 -1.124578 -0.889171 0.889171 
0.041730 -0.042232 -0.201766 0.504842 1.139107 -1.139107 
-0.113901 -0.136735 -0.082681 -1.625300 -0.324548 0.324548 
0.013261 -0.071154 0.070174 0.104489 0.432234 1.628276 
0.054755 -0.000851 0.017445 0.215561 1.147283 1.221703 
-0.089705 -0.047945 -0.165652 -1.248525 0.802336 -0.802336 
0.020615 -0.028833 -0.195130 0.241709 1.181808 -1.181808 
0.101756 -0.197229 -0.116961 1.017534 -1.239982 -0.522017 
0.059834 -0.146203 0.003184 0.755173 -1.068066 1.068190 
0.049093 -0.218930 -0.062900 0.602747 -1.115586 1.115635 
-0.012953 -0.220891 -0.053222 -0.150814 -1.189976 1.189976 
-0.097487 0.001794 -0.102072 -1.382072 0.684438 -0.684438 
-0.029373 -0.213415 -0.117407 -0.069574 -1.303875 -1.072854 
-0.107246 -0.058844 -0.138671 -1.534263 0.499131 -0.499131 
-0.033721 -0.193731 -0.030976 -0.401781 -1.160006 1.160006 
0.119114 -0.123799 -0.122008 1.689381 -0.010421 0.010421 
-0.026152 -0.150960 0.014101 -0.308335 -1.174303 1.174303 
-0.025563 -0.230174 -0.064943 -0.301060 -1.193082 1.157408 
-0.009950 -0.105076 -0.223850 -0.028155 -1.003424 -1.359336 
-0.075360 -0.164606 -0.165988 -0.189223 -1.185319 -1.189429 
-0.078420 -0.195130 -0.062250 -1.050164 -0.935841 0.935841 
0.112789 -0.164375 -0.105275 1.610700 -0.357521 0.357521 
-0.107951 -0.141851 -0.176657 -0.825218 -0.917153 -1.151012 
0.115118 -0.076557 -0.124038 1.640887 0.282825 -0.282825 
0.116194 -0.031368 -0.071777 1.654244 0.239169 -0.239169 
-0.052179 0.054768 -0.048064 -0.306165 1.443866 0.821391 
-0.100538 -0.145747 -0.048091 -1.432474 -0.633370 0.633370 
-0.048260 -0.146974 0.009551 -0.591033 -1.119099 1.119099 
0.094841 -0.069408 -0.178659 1.338384 0.728704 -0.728704 
-0.117998 -0.130428 -0.105836 -1.676193 -0.143858 0.143858 
-0.016583 -0.151520 0.015499 -0.193867 -1.186108 1.186108 
-0.092368 -0.036757 -0.150207 -1.295415 0.764951 -0.764951 
-0.016726 0.008381 0.012505 -0.055077 1.187220 1.201233 
0.114561 -0.117786 -0.168848 1.633961 0.304981 -0.304981 
-0.081964 -0.090189 0.038243 -1.112463 -0.883777 0.909555 
-0.061565 0.002077 0.013380 -0.254852 1.156066 1.205835 
0.059442 -0.126101 0.023587 0.749246 -1.070419 1.070419 
0.104204 -0.029575 0.019673 1.122418 0.629280 1.093033 
-0.087712 -0.181723 -0.145571 -0.307791 -1.231924 -1.114670 
0.014041 0.057797 -0.109667 0.163687 1.201341 -1.176142 
-0.082117 0.020506 -0.107749 -1.115109 0.895110 -0.895110 
-0.049703 -0.223262 -0.101845 -0.195883 -1.415716 -0.901079 
-0.116609 -0.016335 -0.010534 -1.591968 0.360541 0.426786 
0.077268 -0.138597 -0.190177 0.229426 -1.109429 -1.253755 
-0.084929 -0.013941 -0.138680 -1.164491 0.864141 -0.864141 
0.092494 0.040334 -0.067822 1.248744 1.099583 -0.288513 
-0.107121 -0.188244 -0.125883 -1.089943 -1.139675 -0.596294 
0.118635 -0.015757 -0.031405 1.683449 0.133917 -0.047988 
-0.062786 -0.008887 -0.156001 -0.799977 1.050805 -1.050805 
-0.108651 -0.034224 -0.109312 -1.554063 0.465897 -0.465897 
-0.090691 -0.054466 -0.170599 -1.265869 0.788508 -0.788508 
0.012990 -0.108602 0.059012 0.151201 -1.163827 1.215299 
0.089173 -0.210982 -0.103485 0.846756 -1.400548 -0.416237 
-0.101088 -0.060329 0.030618 -1.400356 -0.224449 0.912373 
-0.047406 -0.206092 -0.124663 -0.110974 -1.284792 -1.092259 
-0.001600 -0.152327 -0.182624 -0.002748 -1.169630 -1.219833 
-0.044656 -0.136041 0.022203 -0.543107 -1.130637 1.130637 
0.041028 -0.158590 -0.175375 0.073929 -1.178234 -1.209252 
0.074413 -0.058007 -0.194923 0.983862 0.969416 -0.969416 
0.105641 -0.063797 0.020193 1.509342 -0.445374 0.612417 
0.084935 -0.092312 0.032421 1.164594 -0.864075 0.864075 
0.105512 -0.107782 -0.022850 1.508713 -0.536377 0.536377 
-0.117616 -0.126849 -0.097986 -1.671640 -0.169182 0.169182 
0.048974 0.013101 -0.142999 0.601057 1.116115 -1.116115 
-0.109058 -0.021405 0.008931 -1.248198 0.637228 0.938442 
-0.005370 -0.150778 0.017433 -0.062445 -1.193159 1.193159 
0.009377 -0.172289 -0.162873 0.015342 -1.202641 -1.187181 
0.084357 -0.156702 -0.031248 1.154441 -0.870443 0.870443 
0.070304 0.002349 0.011037 0.321318 1.152560 1.193099 
-0.097184 0.015742 -0.088742 -1.377071 0.689505 -0.689505 
-0.115681 -0.130771 -0.086991 -1.647880 -0.259969 0.259969 
0.070655 -0.220711 -0.080539 0.915694 -1.150383 0.828345 
0.068080 -0.129464 -0.199616 0.190769 -1.089112 -1.277914 
-0.076662 -0.091116 0.043479 -1.020919 -0.908858 0.991452 
-0.118910 -0.118847 -0.127570 -1.686992 0.050717 -0.050717 
-0.038411 0.063210 -0.059579 -0.250556 1.531268 0.669071 
-0.073299 -0.131954 -0.196680 -0.216856 -1.090134 -1.272888 
0.064041 -0.115864 0.030285 0.819011 -1.043446 1.043446 
0.021966 -0.165858 -0.169077 0.036428 -1.192038 -1.197395 
0.118253 -0.106538 -0.128284 1.679228 0.126968 -0.126968 
-0.024805 -0.066858 -0.232186 -0.291053 1.087348 -1.259521 
0.089513 -0.193419 -0.075404 1.245143 -0.805031 0.805031 
0.006812 -0.103879 -0.224786 0.021585 -0.994406 -1.366155 
0.072933 -0.152106 -0.013736 0.959526 -0.981425 0.981425 
-0.101695 -0.125730 -0.192386 -0.780851 -0.803068 -1.261771 
0.033240 -0.000541 -0.163442 0.395837 1.160915 -1.160915 
0.001847 -0.100002 -0.227568 0.006875 -0.953606 -1.394782 
-0.038043 -0.106385 -0.221433 -0.115997 -0.989155 -1.365266 
0.028889 0.045310 -0.029511 0.118435 1.334155 1.030280 
-0.099200 -0.178567 -0.145086 -0.493140 -1.214177 -1.066212 
0.040570 -0.208365 -0.122599 0.094015 -1.289456 -1.088223 
-0.016511 0.037020 -0.130012 -0.193027 1.186182 -1.186182 
0.067330 -0.151774 -0.008158 0.868932 -1.024145 1.024145 
0.048316 0.006218 -0.150273 0.591826 1.118864 -1.118864 
-0.116414 -0.147368 -0.108397 -1.656964 -0.230286 0.230286 
0.065372 -0.024032 -0.169156 0.839218 1.035634 -1.035634 
-0.067881 0.055281 -0.084761 -0.855488 1.318284 -0.615718 
-0.118296 -0.133098 -0.154357 -1.679747 0.124085 -0.124085 
-0.110447 -0.180869 -0.111831 -1.579347 -0.426098 0.420810 
-0.068606 0.054935 -0.058534 -0.585037 1.501387 0.507426 
-0.049349 -0.172520 -0.160913 -0.093334 -1.204370 -1.181808 
-0.040652 0.025199 -0.134810 -0.490756 1.142225 -1.142225 
-0.050167 0.031977 -0.016273 -0.203968 1.280569 1.083526 
0.117476 -0.065131 -0.034707 1.669975 -0.178445 0.178445 
-0.092457 -0.067561 -0.180868 -1.296989 0.763697 -0.763697 
-0.014598 -0.106941 0.060323 -0.170244 -1.140395 1.234207 
0.017005 -0.131499 0.035444 0.198884 -1.185657 1.185657 
0.011721 -0.176513 -0.158551 0.019389 -1.209683 -1.179968 
0.007948 -0.236396 -0.069797 0.086705 -1.512352 0.739304 
-0.064011 -0.127959 -0.201491 -0.170393 -1.089251 -1.280793 
0.046439 -0.139872 -0.192681 0.094495 -1.138151 -1.245614 
-0.118865 -0.083503 -0.073273 -1.686473 -0.059474 0.059474 
-0.024961 -0.176630 -0.011206 -0.293621 -1.176554 1.176554 
-0.049747 -0.008787 -0.164429 -0.611908 1.112882 -1.112882 
0.050939 0.014572 -0.140364 0.628628 1.107901 -1.107901 
-0.108930 0.001135 -0.011097 -1.188149 0.904461 0.789581 
0.104836 -0.154977 -0.166994 0.610661 -1.082673 -1.143385 
0.106727 -0.083240 -0.164818 1.526945 0.511413 -0.511413 
-0.052832 0.033476 -0.120336 -0.655184 1.099989 -1.099989 
-0.012210 -0.022069 -0.189870 -0.141992 1.190771 -1.190771 
-0.047740 -0.154372 0.002460 -0.583745 -1.121271 1.121271 
-0.115236 -0.138904 -0.092199 -1.642355 -0.278022 0.278022 
-0.084811 -0.081398 -0.206287 -1.162400 0.865451 -0.865451 
0.028764 -0.048606 0.058665 0.155404 0.870509 1.439920 
-0.032483 -0.063674 0.065731 -0.222642 0.591855 1.565667 
-0.006778 -0.161505 -0.173661 -0.011129 -1.184962 -1.204867 
-0.118022 -0.044808 -0.020478 -1.676470 -0.142308 0.142308 
-0.117884 -0.154688 -0.128817 -1.674829 -0.151441 0.151441 
-0.080535 0.016761 -0.113474 -1.087309 0.912544 -0.912544 
0.032660 -0.053512 -0.216592 0.388675 1.162010 -1.162010 
-0.053890 -0.007637 0.023835 -0.215696 1.118758 1.247850 
-0.109283 -0.020882 -0.093839 -1.562971 0.450946 -0.450946 
0.069423 -0.094697 0.047013 0.901833 -0.968299 1.049605 
-0.014470 0.033437 -0.133959 -0.168814 1.188359 -1.188359 
0.098778 -0.185559 -0.084321 1.403393 -0.662836 0.662836 
0.008399 -0.219963 -0.110194 0.019198 -1.330003 -1.042336 
-0.082133 -0.192101 -0.063865 -1.115383 -0.894938 0.894938 
0.039194 -0.058889 -0.219541 0.471687 1.146447 -1.146447 
-0.083331 -0.071789 0.048281 -1.062014 -0.250678 1.289147 
-0.052541 -0.036043 0.046981 -0.255489 0.959310 1.367088 
-0.013926 -0.190547 -0.143814 -0.024779 -1.234876 -1.153462 
