-0.053125 -0.160480 -0.051115 -0.530103 -0.599311 0.599311 
0.086785 -0.062292 -0.107642 0.953322 0.211000 -0.211000 
-0.003782 -0.150239 -0.106762 -0.005209 -0.736220 -0.676673 
0.007179 0.018371 -0.002465 0.018613 0.733065 0.679790 
-0.066065 -0.151400 -0.098849 -0.211971 -0.763951 -0.609002 
-0.091464 -0.097691 -0.090820 -0.998177 -0.030735 0.030735 
-0.006607 -0.084727 0.044512 -0.059074 -0.698559 0.712072 
-0.076711 -0.057924 -0.134319 -0.839655 0.382842 -0.382842 
0.021843 0.031997 -0.019071 0.066346 0.777952 0.624537 
0.091139 -0.090162 -0.104931 0.995231 0.066199 -0.066199 
0.084246 -0.000116 -0.008185 0.719468 0.518997 0.458221 
0.018675 -0.036966 0.045154 0.076428 0.521636 0.849397 
0.080006 -0.032115 0.019543 0.747204 0.205950 0.627903 
-0.027045 0.030015 -0.017226 -0.081924 0.772302 0.629738 
-0.069501 -0.081696 0.008054 -0.745507 -0.469385 0.469385 
-0.089912 -0.009172 -0.012120 -0.949101 0.233222 0.207902 
-0.008462 -0.001045 -0.130182 -0.075700 0.704862 -0.704862 
0.017761 -0.062943 0.054420 0.132662 -0.013551 0.989719 
-0.012244 -0.089566 -0.165192 -0.022596 -0.635596 -0.771628 
-0.012489 0.032337 -0.018735 -0.036810 0.776481 0.628818 
-0.012406 -0.044971 -0.173510 -0.111526 0.702125 -0.702125 
0.016036 -0.182023 -0.061595 0.090074 -0.979899 -0.168930 
0.021906 -0.133282 -0.124131 0.028746 -0.712947 -0.700589 
0.090200 -0.096721 -0.121977 0.986631 0.114044 -0.114044 
0.006979 -0.162239 -0.033015 0.062433 -0.705256 0.705256 
0.062890 -0.024067 -0.123072 0.656082 0.532000 -0.532000 
0.047965 0.011980 -0.101440 0.469492 0.623274 -0.623274 
0.018334 0.043099 -0.033691 0.067105 0.832659 0.549301 
0.026859 -0.019182 -0.144098 0.246471 0.685058 -0.685058 
0.091541 -0.088937 -0.093217 0.998865 0.019144 -0.019144 
-0.079616 0.014914 -0.054416 -0.874603 0.349292 -0.332134 
0.002783 0.007830 -0.121642 0.024893 0.706369 -0.706369 
0.070908 -0.099810 -0.149121 0.267658 -0.591863 -0.759703 
0.073049 -0.048971 0.029315 0.752124 -0.103629 0.646127 
0.062557 0.007989 -0.091433 0.651580 0.534824 -0.534824 
0.087742 -0.060132 -0.101141 0.962986 0.189170 -0.189170 
-0.059874 -0.026264 -0.128997 -0.615473 0.557183 -0.557183 
-0.014398 -0.161357 -0.094068 -0.024165 -0.760082 -0.649359 
0.086294 -0.076688 -0.124270 0.948354 0.222219 -0.222219 
0.048299 0.021458 -0.010950 0.166064 0.750442 0.639477 
0.065345 -0.139206 -0.043271 0.689244 -0.511203 0.511203 
-0.074459 -0.154843 -0.073959 -0.810384 -0.442990 0.378811 
-0.066164 -0.123096 -0.129650 -0.157891 -0.690273 -0.706053 
0.000216 0.031751 -0.017607 0.000782 0.772768 0.634568 
0.080550 -0.111476 -0.044552 0.885551 -0.326668 0.326668 
0.068848 0.010479 -0.080315 0.736657 0.476441 -0.476441 
-0.043706 -0.115526 0.000973 -0.420770 -0.641024 0.641024 
0.087397 -0.015466 -0.058041 0.959500 0.197047 -0.197039 
0.064772 -0.066669 -0.163192 0.680525 0.465726 -0.562977 
0.091401 -0.060372 -0.051367 0.997612 -0.040275 0.040275 
0.006514 -0.079077 0.049581 0.058143 -0.607870 0.790588 
-0.018182 -0.093555 -0.161642 -0.031249 -0.646670 -0.762061 
0.009948 -0.091215 0.037764 0.089099 -0.704141 0.704141 
0.065800 -0.079501 0.015865 0.695390 -0.507348 0.507348 
0.054030 -0.020612 0.027788 0.224417 0.585871 0.778300 
-0.089333 -0.021694 -0.053088 -0.978394 0.142989 -0.142989 
0.074071 -0.099380 -0.148237 0.324942 -0.565823 -0.756851 
0.010344 -0.119507 0.009400 0.092705 -0.703817 0.703817 
0.089006 -0.024788 -0.058327 0.975276 0.153176 -0.153176 
-0.090918 -0.068908 -0.086147 -0.993207 0.077462 -0.077462 
-0.091543 -0.090942 -0.086754 -0.998889 -0.018732 0.018732 
0.088436 -0.036850 0.000113 0.969676 -0.146307 0.192589 
0.065537 -0.103941 -0.008246 0.691838 -0.509576 0.509576 
0.009753 -0.020227 0.033668 0.029251 0.623773 0.780890 
-0.081144 -0.009568 -0.074949 -0.892509 0.317668 -0.317668 
0.087984 -0.023278 0.003283 0.919789 0.133472 0.364532 
-0.000128 0.039745 -0.027824 -0.000229 0.806245 0.591522 
0.056871 0.028365 -0.077318 0.577491 0.575927 -0.575927 
-0.057124 -0.148173 -0.104963 -0.125148 -0.745250 -0.654901 
-0.010028 -0.036239 -0.165203 -0.089824 0.704076 -0.704076 
-0.024897 -0.180908 -0.061657 -0.157283 -0.979815 -0.106765 
-0.033520 0.025756 -0.096337 -0.313011 0.670850 -0.670880 
-0.060473 0.037568 -0.041461 -0.423825 0.849873 0.308690 
-0.085985 -0.110087 -0.061105 -0.945235 -0.229264 0.229264 
-0.023079 -0.125515 -0.131868 -0.030329 -0.702402 -0.711093 
-0.073904 -0.005235 0.006873 -0.431315 0.602999 0.670130 
-0.013873 -0.055599 0.053954 -0.084329 0.229950 0.969086 
0.040488 -0.103854 -0.151203 0.068732 -0.664265 -0.744266 
0.044921 -0.167631 -0.083056 0.127587 -0.816637 -0.562728 
0.049643 0.045107 -0.051334 0.358840 0.915780 0.171914 
-0.000779 -0.131186 -0.126693 -0.000969 -0.709893 -0.704283 
-0.013295 -0.077382 0.050061 -0.118631 -0.568811 0.811915 
-0.006987 -0.148919 -0.019695 -0.062499 -0.705254 0.705254 
-0.029985 -0.141987 -0.114699 -0.042705 -0.725801 -0.686532 
0.089341 -0.000207 -0.025865 0.965793 0.255286 0.025508 
-0.006181 -0.091066 0.038206 -0.055293 -0.705467 0.705467 
-0.072673 -0.004658 -0.089271 -0.788359 0.434817 -0.434817 
-0.044558 -0.023543 -0.139536 -0.429964 0.638285 -0.638285 
-0.049700 -0.019120 0.027786 -0.188058 0.601979 0.775722 
0.018651 -0.082895 -0.170223 0.042399 -0.601280 -0.797699 
-0.055560 -0.107621 -0.000649 -0.560905 -0.584111 0.584111 
-0.062733 -0.140740 -0.112087 -0.146581 -0.730323 -0.666980 
0.016628 0.007749 0.008176 0.042217 0.705962 0.706965 
-0.068969 0.008657 -0.004167 -0.347449 0.692385 0.631304 
-0.008892 -0.076032 -0.175558 -0.023303 -0.554755 -0.831611 
0.055511 -0.167405 -0.079855 0.235062 -0.851046 -0.468154 
-0.072069 -0.144977 -0.059335 -0.780304 -0.441643 0.441643 
0.076895 -0.007498 -0.083519 0.841991 0.380475 -0.380475 
0.086879 -0.029941 0.007615 0.925433 0.038266 0.374142 
-0.013419 -0.096350 0.032007 -0.120770 -0.701294 0.701294 
-0.087536 -0.005624 -0.047567 -0.960907 0.193866 -0.193866 
0.015841 0.020098 -0.107826 0.142869 0.699308 -0.699308 
0.059159 -0.102856 -0.149615 0.142017 -0.645330 -0.750414 
-0.023760 -0.118415 -0.138770 -0.032067 -0.692630 -0.720549 
0.059950 -0.051553 0.040163 0.513288 0.057076 0.854920 
0.026144 -0.173353 -0.077882 0.068891 -0.828514 -0.555599 
-0.046952 -0.127086 -0.012886 -0.457660 -0.627848 0.627848 
0.072101 0.022806 -0.024728 0.483824 0.746657 0.454869 
-0.085312 -0.083815 -0.031901 -0.938359 -0.244135 0.244135 
0.087788 0.004902 -0.031960 0.953462 0.294535 -0.041062 
-0.050083 -0.168871 -0.079644 -0.185463 -0.844176 -0.502242 
-0.081276 -0.080005 -0.145045 -0.894051 0.314185 -0.317157 
-0.013036 -0.050041 0.052239 -0.067828 0.352433 0.932261 
0.046117 -0.174981 -0.062355 0.403758 -0.879815 0.235113 
0.087123 -0.117922 -0.124750 0.640173 -0.520807 -0.560564 
0.032411 -0.093970 0.028611 0.301855 -0.673335 0.673335 
0.072653 -0.108135 -0.141740 0.247444 -0.631227 -0.734826 
0.008113 -0.064711 -0.181670 0.037368 -0.336316 -0.939792 
-0.091610 -0.048541 -0.050461 -0.999491 0.008587 -0.008587 
-0.056390 -0.158356 -0.092903 -0.157282 -0.779475 -0.606169 
0.089531 -0.047674 -0.077768 0.980283 0.136816 -0.136816 
0.072988 -0.080348 0.003624 0.792361 -0.430763 0.430763 
0.031149 -0.129028 -0.127975 0.042627 -0.707242 -0.705654 
-0.045276 -0.061110 0.047281 -0.386065 -0.120389 0.911936 
0.031882 -0.130457 -0.007642 0.296535 -0.674513 0.674513 
-0.067871 -0.087025 -0.159127 -0.334964 -0.473202 -0.813500 
-0.033847 -0.076111 0.045352 -0.315502 -0.587050 0.743747 
0.075040 -0.064877 -0.144673 0.818425 0.404354 -0.404354 
-0.080695 -0.028807 -0.095354 -0.887250 0.324470 -0.324470 
-0.076715 -0.015909 -0.092296 -0.839704 0.382793 -0.382793 
0.065023 -0.133573 -0.037237 0.684902 -0.513925 0.513925 
0.060616 -0.168166 -0.068525 0.574671 -0.789676 0.198872 
0.088266 0.001292 -0.036535 0.967765 0.206872 -0.140209 
-0.053060 -0.003359 0.013599 -0.186860 0.663099 0.724520 
-0.007948 -0.102548 -0.154042 -0.011931 -0.669026 -0.743107 
0.066507 -0.162537 -0.081720 0.390859 -0.838019 -0.376889 
0.091449 -0.100589 -0.107973 0.998042 0.033023 -0.033023 
-0.061033 -0.070942 0.030377 -0.631022 -0.541477 0.553861 
0.082437 -0.061526 0.000082 0.907196 -0.296438 0.296438 
-0.082627 -0.013189 -0.074155 -0.909259 0.292975 -0.292975 
-0.025603 -0.110827 0.014472 -0.234544 -0.686883 0.686883 
0.028218 -0.091422 -0.162896 0.051746 -0.635864 -0.769996 
-0.009649 -0.126388 0.002644 -0.086370 -0.704386 0.704386 
-0.004651 -0.098545 -0.157649 -0.007449 -0.661232 -0.750097 
-0.090541 -0.114496 -0.121596 -0.932027 -0.221729 -0.282364 
-0.091548 -0.098018 -0.102046 -0.998932 0.018017 -0.018017 
0.065898 -0.117431 -0.022187 0.696711 -0.506520 0.506520 
0.043944 -0.074676 -0.172904 0.177398 -0.450562 -0.874122 
-0.058446 -0.099164 0.004972 -0.597417 -0.566094 0.566094 
0.005970 -0.028002 0.039785 0.019904 0.590038 0.807040 
0.058477 -0.011570 0.019299 0.239181 0.622727 0.744804 
0.006732 -0.147732 -0.109449 0.009361 -0.732315 -0.680865 
0.014320 -0.047509 -0.175705 0.128991 0.700531 -0.700580 
0.084868 -0.116656 -0.063246 0.933548 -0.252209 0.252209 
0.016617 0.024115 -0.009235 0.045451 0.750075 0.659728 
0.091300 -0.101245 -0.113658 0.996708 0.055518 -0.055518 
0.075790 -0.039366 -0.117634 0.827964 0.394688 -0.394688 
0.075110 -0.068561 0.011092 0.819319 -0.403448 0.403448 
0.090979 -0.057950 -0.041400 0.993771 -0.074325 0.074325 
0.091444 -0.077628 -0.085181 0.997997 0.033783 -0.033783 
0.067759 -0.122662 -0.030127 0.721899 -0.488207 0.488207 
0.041951 0.042208 -0.037755 0.190986 0.860340 0.471862 
0.036554 -0.064520 -0.178211 0.229384 -0.150155 -0.959173 
-0.051071 -0.158520 -0.093875 -0.119154 -0.771855 -0.624438 
0.050713 -0.133622 -0.022317 0.501563 -0.610874 0.610874 
0.077672 -0.119407 -0.045008 0.851805 -0.370308 0.370308 
-0.083508 -0.031015 -0.089011 -0.918804 0.276954 -0.276954 
-0.046417 -0.042794 0.043503 -0.260041 0.377110 0.888064 
-0.084448 -0.044201 -0.099027 -0.928998 0.259845 -0.259845 
-0.006359 0.016597 -0.112664 -0.056882 0.705420 -0.705420 
-0.018070 -0.094023 0.033501 -0.163209 -0.697480 0.697480 
0.089356 -0.069833 -0.101076 0.978613 0.142272 -0.142272 
0.002878 -0.116964 -0.140673 0.003704 -0.691791 -0.722068 
0.043382 -0.142802 -0.026111 0.417268 -0.642068 0.642068 
-0.051104 -0.164215 -0.086413 -0.150472 -0.805116 -0.573460 
-0.051407 -0.007845 -0.118616 -0.509666 0.607741 -0.607741 
0.059374 -0.076413 -0.167793 0.343879 -0.339377 -0.873792 
-0.048843 0.014109 -0.002823 -0.161327 0.725622 0.668627 
-0.091452 -0.040724 -0.033448 -0.998070 -0.032545 0.032545 
-0.027074 -0.053755 0.051781 -0.165118 0.240969 0.955896 
-0.055989 -0.048477 0.041791 -0.417860 0.190213 0.886442 
0.013582 -0.165646 -0.088980 0.025201 -0.773365 -0.633427 
0.064706 -0.165786 -0.072002 0.601393 -0.790573 0.090300 
0.041223 -0.139196 -0.021225 0.393970 -0.649008 0.649008 
-0.016710 -0.157305 -0.029537 -0.150801 -0.698595 0.698595 
0.001118 -0.116952 0.012618 0.009999 -0.706810 0.706810 
0.084239 -0.115656 -0.060124 0.926727 -0.263657 0.263657 
0.052471 -0.151167 -0.102336 0.108610 -0.750074 -0.652218 
0.084163 -0.018684 -0.074472 0.925903 0.265040 -0.265040 
0.084974 0.011725 -0.038051 0.923103 0.370525 -0.091704 
-0.046933 -0.058512 0.046818 -0.386244 -0.033476 0.920266 
0.031363 0.042727 -0.080264 0.291319 0.694185 -0.656484 
-0.044845 -0.076391 0.039361 -0.433047 -0.614986 0.658829 
0.059923 0.031335 -0.071339 0.616142 0.564277 -0.549312 
0.091322 -0.069614 -0.081282 0.996905 0.052189 -0.052189 
-0.090733 -0.080192 -0.099490 -0.991517 0.086859 -0.086859 
0.010367 -0.108214 -0.148812 0.014463 -0.678672 -0.734256 
0.031169 -0.177399 -0.054578 0.287222 -0.768154 0.570412 
0.045164 -0.133046 -0.122798 0.070994 -0.713737 -0.696747 
-0.079381 -0.024132 0.016644 -0.652761 0.364413 0.662130 
0.091251 -0.031255 -0.017737 0.996258 -0.060486 0.060486 
-0.016856 -0.100483 -0.155668 -0.026023 -0.663933 -0.747308 
0.052651 -0.123026 -0.013213 0.524188 -0.602126 0.602126 
0.007576 -0.144526 -0.112861 0.010203 -0.727580 -0.685917 
0.060485 -0.133176 -0.120618 0.124367 -0.714635 -0.688322 
-0.048180 -0.084552 0.028702 -0.471995 -0.622306 0.622306 
-0.067023 0.029988 -0.063366 -0.711507 0.545150 -0.441659 
-0.020481 -0.001736 0.017019 -0.054421 0.680255 0.730765 
-0.087418 0.004363 -0.022463 -0.898558 0.402295 0.171995 
-0.086921 -0.051621 -0.096357 -0.954690 0.207909 -0.207909 
0.031784 0.010887 -0.111971 0.295550 0.674731 -0.674731 
0.012958 -0.171142 -0.042702 0.116562 -0.701673 0.701673 
0.000881 -0.165775 -0.089091 0.001770 -0.771991 -0.635584 
0.022293 0.045761 -0.038483 0.085997 0.858931 0.504369 
-0.090843 -0.009099 -0.026277 -0.992118 0.109111 -0.045169 
-0.075610 -0.101335 -0.146119 -0.337402 -0.568854 -0.749326 
0.009130 -0.115469 0.013629 0.081668 -0.704685 0.704685 
-0.018668 -0.111733 -0.145316 -0.025858 -0.683429 -0.729528 
-0.056871 -0.137294 -0.031610 -0.577488 -0.575928 0.575928 
0.023550 0.029051 -0.096873 0.215046 0.689866 -0.689866 
-0.031559 -0.077539 -0.173058 -0.089163 -0.540701 -0.836127 
0.023833 -0.023749 -0.149587 0.217732 0.689455 -0.689455 
0.091076 -0.079409 -0.063941 0.994658 -0.069385 0.069385 
-0.075530 -0.094307 -0.015509 -0.824663 -0.398028 0.398037 
-0.065109 -0.071566 0.024664 -0.686062 -0.513198 0.513198 
-0.062711 -0.068646 -0.166474 -0.623823 0.278311 -0.724864 
0.017100 0.044674 -0.036000 0.063270 0.844479 0.531105 
-0.087503 -0.067582 -0.025488 -0.960573 -0.194621 0.194621 
0.058545 -0.013692 -0.117730 0.598672 0.565474 -0.565474 
-0.027037 0.023788 -0.101074 -0.248166 0.684799 -0.684799 
0.055928 0.037478 -0.068603 0.564290 0.653052 -0.501066 
-0.018000 0.016871 -0.110666 -0.162569 0.697538 -0.697538 
-0.071036 -0.121532 -0.034237 -0.766303 -0.452806 0.452806 
-0.060128 -0.030786 -0.133246 -0.618763 0.555405 -0.555405 
0.083546 -0.130927 -0.073059 0.919218 -0.276261 0.276261 
0.059810 -0.065822 -0.167840 0.601620 0.378307 -0.702080 
-0.034299 -0.071743 0.048154 -0.314339 -0.458070 0.829359 
-0.016167 -0.131199 -0.126448 -0.020637 -0.709982 -0.703889 
0.079066 -0.117895 -0.047115 0.868143 -0.349180 0.349180 
-0.000616 -0.029601 0.041005 -0.002452 0.581195 0.813525 
-0.083692 -0.047078 -0.104453 -0.920804 0.273598 -0.273598 
-0.028132 -0.048676 0.049960 -0.150092 0.347156 0.924791 
-0.050252 -0.148171 -0.036511 -0.496182 -0.612954 0.612954 
-0.039730 -0.020611 -0.139467 -0.377868 0.653805 -0.653805 
0.039029 -0.003717 0.016776 0.116161 0.670321 0.732781 
0.085567 0.010717 -0.031907 0.905315 0.419985 0.036667 
0.026150 -0.010488 -0.135620 0.239738 0.686088 -0.686088 
-0.009617 -0.011823 0.026682 -0.026859 0.652798 0.756914 
0.068531 0.004657 -0.086643 0.732366 0.479862 -0.479862 
0.025989 -0.120274 -0.136871 0.035093 -0.695146 -0.717978 
-0.087202 -0.119277 -0.075818 -0.957533 -0.201486 0.201486 
-0.075034 0.019686 -0.060108 -0.818349 0.410845 -0.397876 
0.029112 -0.066684 0.051773 0.245887 -0.220599 0.942419 
0.034180 -0.094160 -0.160167 0.062218 -0.641836 -0.764241 
-0.083555 -0.102256 -0.140535 -0.598796 -0.433398 -0.670050 
-0.017421 -0.030647 -0.158288 -0.157286 0.698013 -0.698013 
-0.074271 -0.108789 -0.027428 -0.808658 -0.414250 0.414250 
-0.074333 -0.093259 -0.012026 -0.809454 -0.413444 0.413444 
-0.074302 -0.113430 -0.032133 -0.809054 -0.413842 0.413854 
-0.042382 -0.135831 -0.018547 -0.406485 -0.645280 0.645280 
0.000853 -0.151915 -0.104973 0.001281 -0.738806 -0.673906 
0.009234 -0.042062 -0.171153 0.082599 0.704658 -0.704658 
0.089774 -0.057014 -0.085511 0.982603 0.129234 -0.129234 
0.005172 -0.017411 -0.146743 0.046266 0.705735 -0.705735 
-0.031810 0.037486 -0.027662 -0.111007 0.808289 0.577960 
-0.051933 -0.091454 -0.160302 -0.132355 -0.608409 -0.782323 
-0.011165 -0.002234 -0.130995 -0.100198 0.703143 -0.703143 
-0.047979 -0.015795 0.025545 -0.171395 0.619920 0.765411 
-0.075796 -0.013340 -0.091597 -0.828032 0.394619 -0.394619 
-0.075500 0.012643 -0.013444 -0.490486 0.686472 0.534510 
0.083650 -0.036291 -0.093807 0.920348 0.274363 -0.274363 
0.090043 -0.126077 -0.110291 0.920910 -0.331759 -0.198058 
-0.069878 0.018405 -0.016433 -0.396873 0.732455 0.551550 
0.022168 -0.079498 -0.172521 0.054352 -0.574590 -0.816382 
0.053923 0.011807 -0.001634 0.190684 0.718207 0.668991 
-0.009692 -0.106735 -0.150194 -0.013876 -0.676314 -0.736444 
-0.086370 -0.073935 -0.026702 -0.949131 -0.220466 0.220466 
-0.041002 0.038832 -0.079263 -0.391598 0.656068 -0.643281 
-0.080250 0.010333 -0.057370 -0.882029 0.331222 -0.331222 
0.006816 -0.095330 -0.160434 0.011184 -0.653508 -0.756786 
0.040227 0.013290 -0.105272 0.383229 0.652208 -0.652208 
-0.041245 -0.170488 -0.052530 -0.394210 -0.648937 0.648937 
0.085907 -0.126753 -0.117176 0.565040 -0.609770 -0.555230 
-0.087446 -0.126422 -0.084071 -0.959999 -0.195925 0.195910 
-0.027737 0.006618 0.008365 -0.074288 0.702487 0.707660 
-0.025985 -0.011505 0.025329 -0.074793 0.650030 0.756050 
-0.091564 -0.105613 -0.102137 -0.999078 -0.015548 0.015548 
-0.044746 -0.131861 -0.124040 -0.069874 -0.711537 -0.699090 
-0.063179 0.021897 -0.076746 -0.659989 0.529550 -0.529550 
-0.021902 -0.078561 -0.173191 -0.054712 -0.566678 -0.821867 
0.075155 -0.153368 -0.090854 0.458494 -0.776477 -0.428991 
-0.091542 -0.042229 -0.038008 -0.998880 -0.018880 0.018880 
0.054713 -0.120257 -0.134406 0.099720 -0.690308 -0.716564 
-0.004537 -0.117999 0.011369 -0.040585 -0.705903 0.705903 
0.060435 -0.103684 -0.001609 0.622913 -0.552802 0.552802 
0.001704 -0.064229 -0.181977 0.008747 -0.324459 -0.944675 
0.088299 -0.072570 -0.110751 0.968531 0.175218 -0.175218 
0.017316 -0.006931 -0.134591 0.156326 0.698099 -0.698099 
-0.017522 -0.172246 -0.044623 -0.158203 -0.697930 0.697930 
-0.001448 -0.179741 -0.069303 -0.005541 -0.885851 -0.463284 
0.061395 -0.160325 -0.088624 0.224153 -0.803838 -0.550348 
0.056652 -0.008331 -0.114229 0.574720 0.577294 -0.577294 
0.070643 0.017628 -0.015927 0.406382 0.728421 0.550092 
-0.091400 -0.063912 -0.072953 -0.997602 0.040441 -0.040441 
-0.044546 -0.015400 0.025951 -0.151551 0.625387 0.765267 
-0.006295 -0.079038 0.049624 -0.056037 -0.606820 0.791533 
0.043009 0.020267 -0.096645 0.413252 0.643264 -0.643264 
-0.033307 -0.110013 -0.146175 -0.050130 -0.678234 -0.733088 
0.021212 -0.071794 0.051865 0.186337 -0.395359 0.897037 
-0.022239 -0.034064 0.043002 -0.081664 0.543151 0.835354 
0.013158 -0.093020 -0.162269 0.022355 -0.646318 -0.762675 
0.068710 -0.103337 -0.012323 0.734790 -0.477930 0.477930 
-0.026793 -0.026751 0.037441 -0.090349 0.587274 0.804152 
0.052368 -0.002443 0.012921 0.182055 0.667660 0.721528 
0.034939 -0.103501 -0.151978 0.056510 -0.665661 -0.744055 
0.017383 -0.115823 -0.141499 0.023194 -0.689572 -0.723825 
0.027669 -0.043703 -0.168372 0.254168 0.683880 -0.683880 
-0.038355 -0.166216 -0.086154 -0.089616 -0.793929 -0.601091 
0.022971 -0.029157 -0.155258 0.209546 0.690707 -0.690707 
0.076079 -0.027104 -0.104785 0.831628 0.390976 -0.390976 
-0.021549 0.031117 -0.017948 -0.064228 0.774422 0.629197 
-0.006077 -0.147575 -0.109625 -0.008238 -0.732032 -0.681183 
0.035604 0.017256 -0.003698 0.103313 0.733726 0.671341 
0.045687 0.042240 -0.072308 0.441532 0.715485 -0.539409 
-0.075963 -0.098578 -0.147970 -0.371765 -0.536857 -0.756095 
-0.037508 0.029022 -0.017666 -0.121447 0.773296 0.622119 
0.017132 -0.129647 -0.127992 0.021865 -0.708032 -0.705830 
0.058159 -0.155459 -0.051041 0.593779 -0.567889 0.567889 
-0.088566 -0.080118 -0.116549 -0.971074 0.166908 -0.166908 
0.003335 -0.150531 -0.021091 0.029837 -0.706222 0.706222 
-0.016656 -0.072703 -0.177332 -0.050988 -0.507896 -0.859732 
0.008914 -0.170672 -0.082796 0.017273 -0.795546 -0.605433 
0.044504 0.044368 -0.043498 0.246329 0.892571 0.375779 
0.091591 -0.099455 -0.102011 0.999322 0.011435 -0.011435 
-0.014377 -0.109030 -0.147964 -0.020205 -0.679602 -0.733260 
-0.057484 -0.069370 -0.170256 -0.471426 0.001759 -0.878373 
-0.091415 -0.068403 -0.059885 -0.997741 -0.038100 0.038100 
0.084228 -0.133031 -0.077462 0.926607 -0.263858 0.263858 
0.016068 -0.029945 0.040697 0.055236 0.574999 0.816025 
0.049370 -0.160396 -0.048058 0.485893 -0.616932 0.616932 
-0.005481 -0.079048 -0.173524 -0.012741 -0.581700 -0.813134 
-0.058170 -0.003810 0.012557 -0.225810 0.655372 0.720171 
-0.033938 -0.126689 -0.130133 -0.047365 -0.703711 -0.708872 
-0.013330 0.021986 -0.006688 -0.035457 0.743492 0.667626 
-0.089181 -0.108481 -0.076090 -0.976944 -0.147726 0.147726 
-0.009211 0.031971 -0.018096 -0.027079 0.774431 0.631893 
0.052976 0.017269 -0.092241 0.528224 0.600238 -0.600238 
0.051459 -0.034311 -0.145041 0.510274 0.607506 -0.607506 
0.070400 -0.130409 -0.042097 0.757684 -0.459677 0.459677 
0.032023 0.051486 -0.063834 0.258032 0.956194 -0.118846 
0.082701 -0.142532 -0.100206 0.593235 -0.683897 -0.418968 
-0.012068 -0.144158 -0.113153 -0.016161 -0.727269 -0.686118 
0.087139 -0.128011 -0.114342 0.656036 -0.574568 -0.487059 
-0.043143 -0.002709 -0.119541 -0.414696 0.642834 -0.642834 
-0.003667 -0.003000 0.018925 -0.009570 0.678528 0.734384 
-0.091439 -0.029523 -0.021816 -0.997956 -0.034467 0.034467 
0.038505 -0.169254 -0.081979 0.100577 -0.815640 -0.569438 
0.009246 0.048979 -0.042467 0.038822 0.880689 0.471285 
-0.075152 -0.085429 -0.005861 -0.819851 -0.402909 0.402909 
-0.020608 -0.155308 -0.028487 -0.187107 -0.694141 0.694141 
-0.067373 -0.048325 -0.141477 -0.716673 0.492374 -0.492374 
-0.077200 -0.082137 -0.154454 -0.780509 0.044618 -0.619705 
-0.090625 -0.040065 -0.019559 -0.990526 -0.092372 0.092372 
0.050972 0.001846 0.009209 0.171460 0.683884 0.708758 
0.059462 -0.036961 -0.140098 0.610268 0.559752 -0.559752 
-0.044304 -0.113031 0.003113 -0.427227 -0.639101 0.639101 
-0.039353 -0.110749 -0.145050 -0.061635 -0.678157 -0.732314 
-0.014618 -0.145040 -0.016897 -0.131711 -0.700311 0.700311 
0.086690 -0.111547 -0.065766 0.952363 -0.213165 0.213165 
-0.063606 -0.133394 -0.035284 -0.665753 -0.525935 0.525935 
-0.020249 -0.090867 0.036063 -0.183700 -0.694662 0.694662 
-0.049586 -0.166091 -0.053919 -0.488411 -0.615959 0.615959 
0.007747 0.042454 -0.031836 0.027940 0.823190 0.566754 
-0.044898 -0.145279 -0.109926 -0.075499 -0.734026 -0.674863 
-0.075804 0.016490 -0.061750 -0.828138 0.394767 -0.394255 
-0.061416 -0.109300 -0.143524 -0.142658 -0.660706 -0.736747 
-0.089799 -0.054697 -0.083029 -0.982843 0.128448 -0.128448 
0.058991 -0.131685 -0.122393 0.117227 -0.711753 -0.692451 
-0.063372 -0.132027 -0.121239 -0.141335 -0.711686 -0.687928 
0.028542 0.007435 0.007479 0.076712 0.704973 0.704961 
-0.040611 0.025513 -0.014018 -0.131143 0.761695 0.634285 
-0.069572 0.016192 -0.073444 -0.746463 0.468623 -0.468623 
-0.039622 -0.011290 -0.130211 -0.376699 0.654118 -0.654189 
-0.090285 -0.081889 -0.057578 -0.987406 -0.109731 0.109731 
0.091467 -0.031648 -0.038430 0.998201 0.030334 -0.030334 
0.091120 -0.097582 -0.082604 0.995061 -0.067145 0.067145 
-0.068753 -0.162439 -0.073462 -0.692915 -0.694780 0.178766 
0.029182 -0.134191 -0.122861 0.039820 -0.714471 -0.698499 
0.079432 -0.144230 -0.074401 0.872436 -0.343627 0.343627 
-0.014658 0.039323 -0.088813 -0.132074 0.700279 -0.700279 
0.090851 -0.073124 -0.091111 0.992593 0.080876 -0.080876 
0.022714 -0.152856 -0.103352 0.034450 -0.742886 -0.668478 
0.026006 -0.105704 0.019473 0.238374 -0.686297 0.686297 
-0.064531 -0.027885 0.028905 -0.376737 0.479221 0.791458 
-0.080468 -0.123815 -0.056678 -0.884582 -0.327890 0.327949 
-0.055061 -0.110483 -0.003021 -0.554590 -0.587228 0.587228 
-0.090779 -0.037485 -0.018700 -0.991938 -0.084518 0.084518 
0.023553 -0.180896 -0.057356 0.189466 -0.951755 0.238028 
-0.002969 -0.125525 0.003936 -0.026556 -0.706319 0.706319 
-0.020232 -0.035065 -0.162000 -0.183534 0.694687 -0.694687 
0.010076 -0.031005 -0.159961 0.090267 0.704036 -0.704036 
-0.021014 -0.044389 0.049049 -0.096631 0.433556 0.895167 
-0.083669 -0.137908 -0.080456 -0.920554 -0.274015 0.274021 
0.011499 0.037313 -0.091388 0.103245 0.702869 -0.702869 
-0.078268 0.023087 -0.044999 -0.830346 0.544668 -0.102584 
-0.054297 -0.010655 0.019733 -0.204044 0.633362 0.746132 
-0.086137 -0.097314 -0.139713 -0.864154 -0.119877 -0.481583 
0.053160 -0.014596 -0.123926 0.530552 0.599090 -0.599090 
-0.051075 -0.144864 -0.033838 -0.505794 -0.609238 0.609238 
0.033233 -0.034490 -0.156709 0.310121 0.671505 -0.671505 
0.015794 0.008804 -0.119128 0.142441 0.699347 -0.699347 
0.060300 -0.072637 -0.168454 0.457766 -0.132821 -0.874776 
-0.083400 -0.113869 -0.055508 -0.917631 -0.278923 0.278923 
-0.064868 0.021223 -0.016992 -0.326058 0.750719 0.573386 
0.047229 0.023763 -0.090224 0.460894 0.626598 -0.626598 
0.009367 -0.057768 0.054729 0.061281 0.175981 0.980893 
-0.020446 0.047706 -0.078724 -0.185301 0.764193 -0.616088 
0.022914 -0.127454 -0.001335 0.209004 -0.690790 0.690790 
0.014481 0.043539 -0.084623 0.130466 0.705168 -0.695625 
-0.007820 0.014984 -0.114191 -0.069950 0.705033 -0.705033 
0.022635 -0.101663 -0.154375 0.034855 -0.665170 -0.745835 
-0.008649 0.019045 -0.110081 -0.077372 0.704813 -0.704813 
0.023770 -0.169358 -0.043501 0.217141 -0.689545 0.689545 
0.029516 0.040978 -0.082877 0.272743 0.682762 -0.676767 
0.043939 -0.099688 -0.154546 0.081417 -0.652363 -0.753485 
0.022225 -0.108364 0.017964 0.202466 -0.691791 0.691791 
-0.090286 -0.089583 -0.113882 -0.987416 0.109675 -0.109675 
-0.053151 -0.002275 -0.111614 -0.530434 0.599147 -0.599147 
-0.058665 -0.116893 -0.012972 -0.600179 -0.564731 0.564731 
0.089175 -0.077732 -0.045303 0.976891 -0.147901 0.147901 
-0.049020 -0.095771 0.016837 -0.481802 -0.618514 0.618514 
0.075856 -0.076346 0.001789 0.828798 -0.393844 0.393844 
0.070458 -0.030242 0.026996 0.496014 0.400167 0.769206 
0.009292 -0.018013 0.031900 0.027292 0.632187 0.774185 
0.016471 -0.137850 -0.119649 0.021501 -0.718791 -0.694867 
-0.091365 -0.048005 -0.037768 -0.997285 -0.045783 0.045783 
-0.091364 -0.082465 -0.072225 -0.997284 -0.045800 0.045800 
0.090664 -0.088452 -0.108530 0.990878 0.090418 -0.090418 
0.033351 -0.158265 -0.096479 0.058364 -0.758195 -0.649329 
0.060570 -0.126248 -0.024341 0.624732 -0.551661 0.551661 
-0.075389 -0.030889 -0.109974 -0.822869 0.399850 -0.399850 
0.089741 -0.092192 -0.120908 0.982285 0.130271 -0.130271 
-0.078849 -0.139429 -0.068087 -0.865605 -0.352461 0.352461 
0.015474 -0.179851 -0.052160 0.138391 -0.791478 0.593811 
0.057404 -0.146363 -0.106946 0.123313 -0.741299 -0.659689 
0.075248 -0.074539 0.004834 0.821071 -0.401673 0.401673 
-0.054957 -0.122657 -0.132052 -0.099687 -0.694591 -0.712425 
-0.000056 -0.157092 -0.099229 -0.000010 -0.748559 -0.663066 
-0.090157 -0.057036 -0.031294 -0.986233 -0.116256 0.116256 
0.089658 -0.002715 -0.030978 0.980489 0.174782 -0.081395 
-0.044063 -0.133375 -0.017088 -0.424619 -0.639878 0.639878 
-0.091461 -0.015830 -0.018039 -0.997164 0.054731 0.035010 
0.043269 -0.175816 -0.060735 0.385514 -0.868976 0.302896 
0.048000 -0.134213 -0.020819 0.469890 -0.623120 0.623120 
0.062174 -0.027782 0.029953 0.343631 0.497497 0.796234 
0.091362 -0.090971 -0.101287 0.997264 0.046143 -0.046143 
0.078867 -0.088929 -0.017633 0.865812 -0.352194 0.352194 
0.005254 -0.091208 -0.163957 0.009051 -0.641879 -0.766655 
-0.079680 -0.079020 -0.148186 -0.875271 0.327826 -0.351615 
0.064358 -0.096110 0.001059 0.675909 -0.519566 0.519566 
-0.085054 -0.024533 -0.077318 -0.935558 0.248835 -0.248835 
0.059132 -0.117578 -0.014117 0.606097 -0.561810 0.561810 
0.015124 -0.002812 -0.130864 0.136327 0.699896 -0.699896 
-0.061621 0.037995 -0.044670 -0.471705 0.849754 0.227997 
0.009111 -0.068098 0.054780 0.074066 -0.202905 0.974628 
-0.025301 -0.089614 -0.164575 -0.047409 -0.630893 -0.774356 
-0.091559 -0.083324 -0.079659 -0.999028 -0.016392 0.016392 
0.008681 -0.039485 0.047341 0.040632 0.504895 0.861884 
-0.047502 0.027706 -0.086071 -0.464085 0.625364 -0.625364 
-0.060438 -0.029920 0.032010 -0.333453 0.484079 0.808717 
0.029799 -0.131116 -0.125938 0.040622 -0.710267 -0.702706 
0.065175 -0.141459 -0.045312 0.686945 -0.512645 0.512645 
-0.089467 -0.073080 -0.103595 -0.979671 0.138813 -0.138813 
0.087322 0.006175 -0.028540 0.929953 0.360044 0.049450 
-0.078488 0.015246 -0.057028 -0.861375 0.361198 -0.354597 
0.045762 -0.077493 0.037612 0.443765 -0.625491 0.640841 
0.013938 -0.174911 -0.076704 0.036058 -0.829120 -0.557679 
0.049675 -0.172130 -0.060511 0.482737 -0.729046 0.479992 
0.032441 -0.082477 -0.169569 0.077653 -0.585649 -0.806735 
0.051259 -0.095518 0.015366 0.507935 -0.608410 0.608410 
-0.084499 0.011937 -0.028071 -0.845169 0.504045 0.163827 
0.062607 -0.139242 -0.113742 0.143544 -0.727550 -0.670613 
0.079777 -0.078870 -0.147788 0.876436 0.329426 -0.347142 
-0.089809 -0.052112 -0.023844 -0.982936 -0.128144 0.128144 
-0.085967 -0.038149 -0.087214 -0.945051 0.229680 -0.229680 
0.046981 0.023690 -0.013277 0.161606 0.758142 0.631434 
0.090554 -0.036917 -0.015611 0.989871 -0.096017 0.096017 
-0.042114 -0.123951 -0.132202 -0.063684 -0.699007 -0.712221 
-0.011230 -0.123756 -0.133973 -0.014292 -0.700467 -0.713513 
0.009157 -0.096175 -0.159656 0.014822 -0.655270 -0.755192 
0.057133 0.041566 -0.050105 0.450580 0.881330 0.135976 
0.057276 -0.074304 -0.169432 0.341422 -0.302340 -0.889534 
0.019962 -0.170406 -0.082562 0.042269 -0.799883 -0.598414 
-0.090471 -0.025265 -0.006119 -0.986455 -0.016684 0.155449 
0.074921 -0.144659 -0.103555 0.308106 -0.744644 -0.591093 
0.014969 -0.036034 0.044865 0.059838 0.532287 0.844041 
0.057807 -0.015312 -0.120076 0.589325 0.570087 -0.570087 
-0.002761 -0.060778 -0.182871 -0.014730 -0.160216 -0.985358 
0.085848 -0.058705 -0.108309 0.943852 0.232389 -0.232389 
-0.004523 -0.047041 -0.176411 -0.040456 0.705705 -0.706108 
0.019245 -0.038455 -0.165691 0.174160 0.696122 -0.696122 
-0.083584 -0.133813 -0.076074 -0.919631 -0.275566 0.275566 
-0.021591 -0.145151 -0.111788 -0.030131 -0.729574 -0.683202 
-0.067955 0.006840 -0.001683 -0.330248 0.686125 0.647048 
-0.088963 -0.122892 -0.089066 -0.974860 -0.154538 0.154538 
0.091284 -0.084304 -0.097269 0.996561 0.057987 -0.057987 
0.074507 0.027482 -0.039862 0.683736 0.711869 0.146075 
0.057564 -0.052104 0.041554 0.479333 0.069949 0.872534 
-0.033874 -0.160692 -0.093559 -0.062113 -0.765784 -0.640000 
0.084946 -0.022688 -0.075836 0.934390 0.250796 -0.250796 
0.024546 -0.145464 -0.019843 0.224508 -0.688418 0.688418 
0.083408 -0.083566 -0.141900 0.917713 0.276595 -0.280945 
-0.053812 -0.149069 -0.104506 -0.111143 -0.745465 -0.657075 
-0.073589 0.010844 -0.071905 -0.799992 0.423031 -0.423031 
0.064296 -0.131633 -0.034386 0.675079 -0.520087 0.520087 
0.065960 -0.145357 -0.050192 0.697561 -0.505987 0.505987 
0.067655 -0.099476 -0.150447 0.225933 -0.606299 -0.762220 
-0.019318 0.031217 -0.095997 -0.174854 0.696015 -0.696015 
-0.091327 -0.066638 -0.078143 -0.996949 0.051456 -0.051456 
-0.028835 -0.051990 -0.176118 -0.265790 0.659596 -0.702106 
0.090110 -0.041834 -0.015573 0.985807 -0.118626 0.118626 
-0.022123 -0.149896 -0.106640 -0.032316 -0.737361 -0.674684 
-0.080357 -0.123843 -0.124126 -0.349164 -0.661146 -0.662934 
-0.063817 -0.135544 -0.117448 -0.147048 -0.719044 -0.679012 
-0.006973 0.052626 -0.074378 -0.061080 0.884790 -0.459964 
0.076688 0.000541 -0.000624 0.486495 0.620705 0.612827 
-0.050985 -0.125465 -0.129778 -0.086594 -0.700280 -0.708485 
0.026160 -0.172984 -0.047855 0.239840 -0.686072 0.686072 
0.067704 -0.140213 -0.111447 0.184811 -0.730979 -0.656572 
-0.073533 -0.149864 -0.097487 -0.330400 -0.764255 -0.552782 
0.013020 0.040438 -0.029337 0.044793 0.813118 0.579954 
-0.086328 -0.071245 -0.023818 -0.948699 -0.221441 0.221441 
0.012906 -0.030440 0.041219 0.044329 0.573315 0.817811 
-0.004427 -0.012559 0.027430 -0.012656 0.650949 0.758825 
-0.076800 -0.019061 0.015824 -0.547586 0.467816 0.691859 
0.054183 -0.122351 -0.132458 0.097004 -0.694387 -0.713002 
-0.090525 -0.065683 -0.087315 -0.989603 0.097508 -0.097508 
-0.015306 -0.142176 -0.014157 -0.137986 -0.699747 0.699747 
0.080193 -0.072621 -0.004770 0.881365 -0.332080 0.332080 
0.086502 -0.082218 -0.035581 0.950458 -0.217466 0.217466 
0.091066 -0.062147 -0.077733 0.994562 0.069918 -0.069918 
0.091323 -0.097901 -0.109530 0.996916 0.052011 -0.052011 
0.001458 -0.056931 -0.183021 0.012107 0.127767 -0.989894 
0.015480 0.043435 -0.033834 0.056487 0.832857 0.550370 
-0.032726 -0.123654 -0.001211 -0.305022 -0.672634 0.672634 
0.026310 0.025723 -0.099361 0.241258 0.685856 -0.685856 
-0.079381 -0.113997 -0.133866 -0.345882 -0.622062 -0.701308 
0.008776 0.036079 -0.093039 0.078509 0.704779 -0.704779 
-0.090668 -0.028202 -0.008679 -0.990762 -0.065722 0.110041 
-0.029620 -0.108304 -0.147976 -0.044257 -0.676055 -0.735463 
0.077310 0.023566 -0.049025 0.834906 0.511609 -0.199018 
0.068809 -0.026092 0.025621 0.434096 0.469832 0.767555 
-0.039627 -0.016331 -0.135249 -0.376756 0.654136 -0.654136 
-0.054154 -0.058252 0.043329 -0.485755 -0.110978 0.865221 
0.021891 -0.021307 0.033793 0.067771 0.615875 0.784806 
-0.043835 -0.099600 -0.154633 -0.081148 -0.652224 -0.753629 
-0.075827 -0.030744 0.023223 -0.617965 0.318751 0.716722 
0.016062 -0.097166 -0.158613 0.025813 -0.656546 -0.753794 
0.042237 -0.141494 -0.114261 0.066952 -0.727086 -0.683190 
0.045865 -0.120227 -0.135465 0.073314 -0.692633 -0.717494 
-0.039481 -0.084932 0.034072 -0.375180 -0.654606 0.654606 
0.068711 -0.130767 -0.039755 0.734805 -0.477917 0.477917 
-0.061043 0.016606 -0.084710 -0.631123 0.547653 -0.547653 
-0.091308 -0.014228 -0.026208 -0.996773 0.059812 -0.047315 
-0.031119 -0.168470 -0.084107 -0.071190 -0.798208 -0.597909 
0.003061 0.055005 -0.058020 0.018446 0.982967 0.172922 
-0.006329 -0.031341 0.042130 -0.022938 0.569933 0.821051 
-0.018889 -0.128217 -0.129357 -0.024322 -0.706086 -0.707684 
-0.014541 -0.177322 -0.072907 -0.044557 -0.856681 -0.513722 
-0.047348 -0.151044 -0.103229 -0.088491 -0.746683 -0.659178 
0.008049 -0.141727 -0.115813 0.010555 -0.723645 -0.690075 
-0.091583 -0.049914 -0.052771 -0.999242 0.012781 -0.012781 
-0.022397 -0.114557 0.011718 -0.204100 -0.691541 0.691541 
-0.004507 -0.182431 -0.062549 -0.025044 -0.965803 -0.250855 
-0.090392 -0.085564 -0.062451 -0.988388 -0.104267 0.104267 
0.057241 -0.120784 -0.133515 0.110341 -0.690296 -0.714926 
-0.080743 -0.146313 -0.079897 -0.887774 -0.330021 0.317337 
-0.082738 -0.069003 -0.129597 -0.910456 0.290966 -0.290966 
0.028044 -0.108091 0.016415 0.257931 -0.683058 0.683058 
-0.051860 0.038140 -0.072052 -0.514706 0.650205 -0.557498 
0.028004 -0.139906 -0.117017 0.038921 -0.722502 -0.690241 
-0.023214 0.053490 -0.060362 -0.167035 0.982423 0.059799 
-0.086541 -0.057446 -0.010985 -0.950850 -0.216588 0.216578 
0.014320 -0.176522 -0.074186 0.040766 -0.847258 -0.528973 
-0.048008 -0.006423 0.017573 -0.159331 0.656186 0.737385 
0.087789 -0.073928 -0.114723 0.963463 0.188093 -0.188093 
0.024560 -0.175234 -0.075173 0.071078 -0.846537 -0.527035 
-0.000231 -0.182715 -0.055260 -0.002442 -0.958516 0.280070 
-0.033306 -0.013496 0.026178 -0.101160 0.640274 0.761249 
-0.040834 -0.160814 -0.092652 -0.081543 -0.770734 -0.631846 
0.082585 -0.067940 -0.006832 0.908799 -0.293747 0.293747 
0.040806 -0.085341 -0.166555 0.099715 -0.591899 -0.799690 
0.088018 -0.100491 -0.060735 0.965777 -0.182867 0.182867 
0.087177 -0.087893 -0.044318 0.957273 -0.202074 0.202074 
0.056328 -0.097252 -0.154868 0.139771 -0.629466 -0.764188 
-0.035020 -0.151099 -0.029667 -0.328087 -0.667528 0.667528 
0.090903 -0.017117 -0.034518 0.993073 0.078206 -0.078206 
0.036742 -0.027393 -0.148022 0.345618 0.663413 -0.663413 
0.034008 -0.056857 0.050940 0.238536 0.123399 0.961846 
-0.019037 -0.042572 0.048355 -0.083457 0.461909 0.882736 
0.044837 -0.125750 -0.130164 0.069895 -0.701945 -0.708717 
0.000634 0.052138 -0.075739 0.005390 0.862670 -0.503267 
-0.004564 0.033749 -0.020162 -0.013436 0.780550 0.624686 
-0.004804 -0.174555 -0.077579 -0.012913 -0.821735 -0.569270 
0.038048 -0.162181 -0.091332 0.075508 -0.773602 -0.629086 
-0.024262 -0.092970 0.032738 -0.221815 -0.688830 0.688830 
-0.050340 -0.035701 -0.147293 -0.497212 0.612565 -0.612547 
0.028988 -0.085960 -0.167254 0.062872 -0.611875 -0.788433 
-0.086542 -0.044065 0.002377 -0.950861 -0.213031 0.219967 
-0.057320 -0.090514 0.014728 -0.583166 -0.573126 0.573126 
0.091578 -0.113453 -0.115281 0.998380 -0.021728 -0.038035 
-0.090783 -0.083714 -0.064971 -0.991972 -0.084328 0.084328 
0.016060 -0.107393 0.020491 0.144863 -0.699129 0.699129 
-0.043159 -0.129824 -0.013000 -0.414866 -0.642783 0.642783 
-0.002474 -0.107470 -0.149595 -0.003626 -0.677828 -0.735164 
-0.026540 -0.012162 -0.137175 -0.243445 0.685521 -0.685521 
0.008586 -0.052271 -0.180893 0.075763 0.553281 -0.827646 
-0.047982 -0.115354 -0.001947 -0.469685 -0.623199 0.623199 
0.050758 -0.122022 -0.010752 0.502087 -0.610671 0.610671 
0.044822 -0.031093 -0.146930 0.432812 0.637437 -0.637437 
-0.032205 -0.155953 -0.033280 -0.299778 -0.673795 0.673795 
-0.081244 -0.027553 -0.092675 -0.893677 0.316158 -0.316158 
0.053766 0.018906 -0.089828 0.538216 0.595308 -0.595308 
0.081291 -0.000849 -0.003473 0.611787 0.567820 0.549348 
0.044272 -0.072214 -0.174010 0.204834 -0.389907 -0.896607 
-0.047902 -0.155302 -0.098256 -0.096625 -0.757914 -0.645073 
-0.059260 -0.163550 -0.060214 -0.607713 -0.561470 0.560554 
-0.081513 -0.062764 -0.127186 -0.896836 0.312073 -0.312073 
-0.004281 -0.141770 -0.115797 -0.005535 -0.723614 -0.690147 
0.016710 -0.110740 0.017028 0.150797 -0.698596 0.698596 
-0.061948 -0.121515 -0.021331 -0.643346 -0.539987 0.539987 
-0.059852 -0.041746 -0.144499 -0.615205 0.557316 -0.557316 
0.020451 -0.124915 0.001953 0.185613 -0.694369 0.694369 
-0.052133 0.016437 -0.093775 -0.518139 0.604465 -0.604465 
-0.054219 -0.144410 -0.109640 -0.106196 -0.735354 -0.669191 
0.089507 -0.103872 -0.130489 0.951434 -0.063961 -0.297642 
-0.087585 -0.097701 -0.136742 -0.931604 -0.011306 -0.359897 
-0.090780 -0.011703 -0.014421 -0.979281 0.150483 0.126582 
-0.078983 -0.074595 -0.145589 -0.867177 0.350429 -0.350429 
0.040034 -0.174316 -0.055764 0.380254 -0.703739 0.597607 
0.074414 -0.114109 -0.033038 0.810472 -0.412412 0.412412 
0.038358 -0.125066 -0.005395 0.363062 -0.658216 0.658216 
0.033256 -0.001871 -0.124080 0.310347 0.671455 -0.671455 
-0.055648 0.008975 0.000853 -0.201837 0.707032 0.677401 
0.001078 -0.163740 -0.091512 0.002120 -0.765674 -0.643122 
-0.088105 -0.030969 -0.070333 -0.966651 0.180892 -0.180892 
-0.080465 -0.110541 -0.136334 -0.389121 -0.592332 -0.704355 
-0.001104 -0.111127 -0.146217 -0.001543 -0.683653 -0.729791 
-0.017432 0.021108 -0.106531 -0.157390 0.698003 -0.698003 
-0.024385 0.024265 -0.101406 -0.222974 0.688653 -0.688653 
-0.014444 -0.145347 -0.111839 -0.019696 -0.729163 -0.684025 
-0.078097 -0.059365 -0.132661 -0.856785 0.363868 -0.363868 
0.048725 -0.141505 -0.113543 0.084160 -0.728447 -0.679811 
-0.024290 0.030801 -0.017833 -0.073029 0.774199 0.628556 
0.038731 -0.148384 -0.028935 0.367087 -0.657039 0.656995 
0.083614 -0.021986 -0.079626 0.919950 0.275031 -0.275031 
-0.012558 -0.052784 -0.180719 -0.110524 0.536367 -0.834448 
-0.059916 -0.048652 -0.151343 -0.616010 0.556919 -0.556919 
-0.081974 -0.096274 -0.145550 -0.631103 -0.357104 -0.686771 
0.085216 -0.004233 -0.005268 0.751904 0.468330 0.459603 
0.028732 -0.146278 -0.110203 0.042035 -0.732417 -0.679508 
0.090022 -0.126678 -0.099835 0.984907 -0.129179 0.113581 
0.072738 -0.032495 -0.116974 0.789190 0.433976 -0.433976 
0.086226 0.007632 -0.038884 0.945002 0.288666 -0.144467 
0.029672 -0.097514 0.026275 0.274302 -0.679431 0.679437 
-0.061117 -0.143932 -0.108905 -0.141716 -0.737059 -0.660588 
0.041871 -0.005864 0.018249 0.129505 0.662109 0.737948 
-0.063119 -0.065155 -0.163794 -0.658596 0.494709 -0.563436 
0.038547 -0.159169 -0.039610 0.365092 -0.657611 0.657611 
0.082997 -0.011383 -0.071101 0.913268 0.286246 -0.286246 
-0.033571 -0.098365 -0.156614 -0.057456 -0.654076 -0.754145 
0.074149 -0.042404 0.028361 0.705078 0.086681 0.701907 
-0.018545 -0.090620 -0.164086 -0.033649 -0.637198 -0.769877 
-0.059156 -0.100729 -0.151449 -0.146825 -0.637388 -0.756291 
0.090019 -0.094503 -0.067615 0.984941 -0.121592 0.121592 
-0.038821 0.009592 0.003900 -0.112771 0.710861 0.694012 
-0.088328 -0.097351 -0.059361 -0.968808 -0.174314 0.174314 
-0.073795 0.027642 -0.051741 -0.786313 0.576074 -0.211795 
-0.091496 -0.104072 -0.098275 -0.998462 -0.025926 0.025926 
0.030608 -0.012893 -0.136269 0.283714 0.677351 -0.677351 
0.008241 -0.099043 -0.157181 0.012832 -0.662196 -0.749209 
0.027550 0.020909 -0.103797 0.253040 0.684053 -0.684053 
0.008642 -0.156852 -0.099406 0.013495 -0.748530 -0.662952 
-0.089656 -0.050771 -0.021494 -0.981470 -0.132935 0.132935 
0.086230 -0.111062 -0.063193 0.947714 -0.223665 0.223665 
0.040063 -0.163375 -0.044715 0.381452 -0.652738 0.652738 
0.059746 -0.100713 -0.151355 0.150630 -0.636680 -0.756197 
0.075738 -0.067237 -0.145612 0.827299 0.395350 -0.395373 
-0.003508 -0.149369 -0.019940 -0.031381 -0.706176 0.706176 
-0.061360 -0.116067 -0.137333 -0.133152 -0.677652 -0.723075 
-0.090813 -0.083814 -0.102223 -0.992246 0.082804 -0.082804 
0.018100 -0.173381 -0.045861 0.163486 -0.697455 0.697455 
0.071148 -0.048065 0.031494 0.700784 -0.028142 0.708750 
-0.078509 -0.126465 -0.054239 -0.861616 -0.357592 0.357649 
0.084406 -0.087986 -0.033016 0.928535 -0.260624 0.260624 
0.021647 -0.181477 -0.059329 0.150381 -0.984594 0.038779 
-0.055299 0.042941 -0.054775 -0.469772 0.881349 0.009365 
0.028722 -0.130583 -0.006375 0.264749 -0.681549 0.681549 
-0.046239 -0.160742 -0.091969 -0.101453 -0.775221 -0.623424 
-0.091491 -0.019985 -0.025938 -0.998421 0.026639 -0.026610 
0.058015 -0.143536 -0.109977 0.122121 -0.735195 -0.666696 
0.079830 -0.055976 -0.124769 0.877109 0.337617 -0.337552 
-0.013569 0.003523 -0.124808 -0.122133 0.701172 -0.701172 
-0.040687 -0.131412 -0.013122 -0.388185 -0.650732 0.650732 
-0.052769 -0.094585 -0.157677 -0.126471 -0.624102 -0.770935 
-0.023317 0.015620 -0.110376 -0.212839 0.690203 -0.690203 
-0.032235 -0.158579 -0.096216 -0.055934 -0.758492 -0.649226 
0.079339 -0.127337 -0.121051 0.327794 -0.679863 -0.654901 
0.088742 -0.056526 -0.091798 0.972759 0.161404 -0.161404 
-0.050845 -0.160280 -0.091730 -0.125918 -0.779624 -0.613401 
0.078330 0.023199 -0.043351 0.817757 0.568394 -0.054859 
-0.082518 -0.047352 -0.108686 -0.908073 0.294966 -0.294966 
0.089017 -0.106935 -0.073466 0.975378 -0.152845 0.152845 
0.018498 -0.066420 -0.180354 0.081174 -0.368113 -0.925204 
0.081150 0.019144 -0.039342 0.850061 0.522189 -0.015711 
-0.029166 -0.087446 0.036566 -0.269218 -0.680560 0.680560 
0.090598 -0.113826 -0.093008 0.990271 -0.093791 0.093791 
0.041073 0.012181 0.000894 0.121902 0.719241 0.683953 
-0.090384 -0.063035 -0.086237 -0.988316 0.104669 -0.104669 
0.002646 -0.022859 -0.152340 0.023665 0.706405 -0.706405 
0.090594 -0.062038 -0.082896 0.990238 0.093979 -0.093979 
0.009757 -0.088065 -0.166490 0.018756 -0.630461 -0.775911 
-0.087863 -0.053166 -0.093627 -0.964208 0.186411 -0.186411 
0.040704 -0.131061 -0.012782 0.388386 -0.650659 0.650685 
0.053641 0.009739 0.000632 0.187771 0.711119 0.677282 
-0.090980 -0.059393 -0.075936 -0.993777 0.074288 -0.074288 
-0.053406 -0.046737 -0.155825 -0.533655 0.597558 -0.597558 
0.004478 -0.176498 -0.074705 0.011773 -0.840394 -0.541278 
0.023651 -0.171503 -0.045609 0.216012 -0.689718 0.689718 
-0.073485 -0.017377 -0.100336 -0.798680 0.424360 -0.424360 
0.081991 -0.033851 -0.096963 0.902360 0.304555 -0.304555 
-0.084165 -0.063254 -0.119036 -0.925922 0.265008 -0.265008 
0.044819 -0.147845 -0.032007 0.432788 -0.637424 0.637465 
-0.089293 -0.101283 -0.069623 -0.978007 -0.144252 0.144252 
0.022582 -0.096041 0.030178 0.205859 -0.691272 0.691272 
-0.051886 0.024013 -0.086388 -0.515264 0.605577 -0.605577 
0.018342 -0.120057 -0.137389 0.024033 -0.695361 -0.718224 
0.054285 0.015126 -0.005347 0.196061 0.729777 0.654845 
-0.086576 -0.041073 0.004954 -0.951035 -0.187764 0.241080 
0.047068 -0.046702 0.044801 0.295012 0.302554 0.905143 
-0.035583 0.045161 -0.075486 -0.332930 0.744504 -0.577307 
0.091408 -0.074891 -0.066139 0.997678 -0.039148 0.039148 
0.058465 -0.089405 0.014712 0.597654 -0.565977 0.565976 
-0.072631 -0.115584 -0.030887 -0.787830 -0.435352 0.435354 
0.008062 -0.100647 0.028513 0.072116 -0.704968 0.704968 
-0.066477 -0.142405 -0.109346 -0.178963 -0.735542 -0.653111 
-0.008740 -0.083673 -0.170017 -0.015992 -0.610922 -0.791458 
0.082494 -0.032615 -0.094029 0.907815 0.295398 -0.295398 
-0.006685 -0.045482 0.050620 -0.030974 0.432740 0.900191 
-0.048517 -0.081395 0.031600 -0.475935 -0.620782 0.620782 
-0.021133 -0.139876 -0.013216 -0.192090 -0.693378 0.693378 
0.085090 -0.014171 0.003514 0.771182 0.375399 0.511479 
0.060461 -0.104685 -0.147799 0.145641 -0.649130 -0.746453 
0.002724 0.051249 -0.077023 0.023993 0.835020 -0.547561 
-0.000654 -0.181193 -0.066318 -0.003164 -0.918581 -0.394256 
-0.089335 -0.023664 -0.055042 -0.978417 0.142913 -0.142913 
-0.008237 -0.143937 -0.014787 -0.073686 -0.704922 0.704922 
0.054566 0.043240 -0.053617 0.445820 0.891159 0.055506 
-0.007553 -0.015006 -0.144196 -0.067561 0.705104 -0.705104 
0.083583 -0.019464 -0.077207 0.919620 0.275586 -0.275586 
-0.031344 -0.125466 -0.131497 -0.043115 -0.702015 -0.710810 
-0.079535 -0.049733 -0.119295 -0.873641 0.342069 -0.342069 
-0.030099 -0.148599 -0.107598 -0.045236 -0.736544 -0.674827 
0.017470 0.014111 -0.113521 0.157731 0.697973 -0.697973 
0.000500 -0.108555 -0.148607 0.000638 -0.679636 -0.733518 
-0.087557 -0.120127 -0.078276 -0.961113 -0.193401 0.193401 
0.000902 -0.138475 -0.119249 0.001194 -0.719185 -0.694788 
-0.019983 0.039137 -0.087874 -0.181171 0.695049 -0.695049 
0.004036 -0.111465 0.017934 0.036099 -0.706036 0.706036 
0.080478 -0.052267 -0.119378 0.884705 0.327762 -0.327762 
0.087182 -0.037137 -0.080688 0.957328 0.201951 -0.201951 
-0.075098 -0.105752 -0.026074 -0.819165 -0.403604 0.403604 
-0.083231 -0.047912 0.010860 -0.915710 -0.259483 0.302803 
-0.016677 -0.155125 -0.027351 -0.150493 -0.698623 0.698623 
-0.005186 -0.009943 -0.139273 -0.046391 0.705731 -0.705731 
0.065621 0.033639 -0.060536 0.686359 0.630239 -0.359203 
-0.016023 0.050659 -0.075922 -0.143091 0.834671 -0.530282 
-0.067240 -0.022824 0.024325 -0.386590 0.512674 0.765270 
0.056254 0.009466 0.000153 0.206961 0.709218 0.673474 
0.009520 -0.057308 -0.182775 0.070417 0.114033 -0.990018 
0.003822 -0.002327 0.018291 0.009692 0.680325 0.732701 
0.090136 -0.111900 -0.085926 0.986042 -0.117318 0.117318 
0.088859 -0.006935 -0.041440 0.973874 0.157759 -0.157759 
-0.018865 -0.029175 0.039930 -0.064913 0.578058 0.813072 
-0.024773 -0.074829 0.049411 -0.223988 -0.520172 0.822909 
0.091358 -0.062855 -0.052399 0.997227 -0.046767 0.046767 
0.047131 -0.101700 0.012362 0.459755 -0.627038 0.627038 
-0.003985 -0.175855 -0.046453 -0.035650 -0.706050 0.706050 
0.085177 -0.042183 0.009484 0.935700 -0.186307 0.298973 
0.045568 -0.056351 0.047308 0.353739 0.056959 0.931724 
0.025666 -0.176541 -0.072809 0.083499 -0.866972 -0.490305 
0.018926 -0.181514 -0.062684 0.101618 -0.970477 -0.213439 
0.025914 -0.123272 -0.133966 0.034548 -0.699383 -0.713896 
-0.041674 -0.001846 0.014606 -0.126157 0.674933 0.726802 
0.026724 -0.178670 -0.068451 0.110087 -0.910880 -0.397312 
0.088276 -0.053362 -0.091693 0.968314 0.175927 -0.175927 
-0.088127 -0.088738 -0.128002 -0.966872 0.180392 -0.180392 
-0.017762 -0.111425 0.016155 -0.160393 -0.697733 0.697733 
0.088847 -0.048142 -0.013554 0.973753 -0.158155 0.158155 
-0.091219 -0.012406 -0.019394 -0.993788 0.095496 0.033147 
0.084661 0.003141 -0.050968 0.931300 0.255983 -0.255983 
-0.003513 -0.085695 0.043732 -0.031415 -0.703350 0.708975 
-0.062081 -0.020041 0.024693 -0.301720 0.563436 0.768605 
0.026385 -0.150586 -0.025526 0.241978 -0.685745 0.685745 
-0.069316 -0.039593 -0.129638 -0.742998 0.471386 -0.471386 
0.050560 -0.072948 0.038294 0.499666 -0.570672 0.649663 
0.089450 -0.043429 -0.074052 0.979513 0.139331 -0.139331 
0.018374 0.052993 -0.070560 0.156633 0.929037 -0.332892 
0.073624 -0.147044 -0.101236 0.299136 -0.753709 -0.584527 
-0.042608 0.009155 -0.107995 -0.408921 0.644554 -0.644554 
-0.033363 -0.029164 0.038302 -0.120904 0.566303 0.814846 
-0.055584 -0.002580 0.012209 -0.203751 0.663498 0.719472 
0.057289 -0.000571 0.009849 0.215752 0.670060 0.709782 
-0.009468 -0.128282 0.000782 -0.084718 -0.704535 0.704535 
-0.018547 0.019122 -0.108317 -0.167563 0.697089 -0.697089 
0.004625 -0.093435 -0.162094 0.007760 -0.648877 -0.760807 
0.065251 -0.138454 -0.114031 0.159833 -0.726195 -0.668520 
