8.347028238240572495e-02 -1.020579211180893675e-01 -1.001362549946720193e-01 9.994870000000000143e-01 -8.649999999999999703e-03 8.649999999999999703e-03
2.828109437551355743e-02 4.819552787529267357e-02 -5.108519438691101755e-02 1.657800000000000107e-01 9.448339999999999517e-01 2.780469999999999886e-01
3.430332724146774315e-02 -1.606519143303349051e-01 -3.880839733214325182e-02 3.128489999999999882e-01 -6.709009999999999696e-01 6.709009999999999696e-01
8.602888808422735900e-02 -2.354147148570194525e-02 -6.570330541562117987e-02 9.639849999999999808e-01 1.869139999999999968e-01 -1.869139999999999968e-01
3.736476747065902576e-02 -9.560123262326977733e-02 -1.604671707473084019e-01 6.892700000000000216e-02 -6.446549999999999780e-01 -7.613280000000000047e-01
2.180537699224761525e-02 -8.552149213728614530e-02 3.795525065025389527e-02 2.005200000000000038e-01 -6.892580000000000373e-01 6.948929999999999829e-01
5.130247478211151513e-02 -1.040297475380618508e-01 7.693678223630736127e-03 4.822899999999999965e-01 -6.183250000000000135e-01 6.183250000000000135e-01
-9.433371457683535632e-02 -1.098485747388881079e-01 -9.252233959471144187e-02 -9.933279999999999887e-01 -7.678400000000000503e-02 7.678400000000000503e-02
2.772531668304867303e-02 3.421511160300641508e-02 -9.203442792709620734e-02 2.358599999999999863e-01 6.866809999999999858e-01 -6.866809999999999858e-01
8.691675058256814745e-02 -3.141907057596936975e-02 -6.543424461457404695e-02 9.746519999999999628e-01 1.552159999999999929e-01 -1.552159999999999929e-01
8.100611328147952483e-02 6.391317369297421294e-03 -3.776225307868062708e-02 9.552549999999999653e-01 2.577300000000000146e-01 -1.387770000000000115e-01
1.627660333338290868e-02 -9.019912712816238742e-02 4.461513459752373262e-02 1.538460000000000105e-01 -6.974299999999999944e-01 6.992119999999999447e-01
1.087829295274386245e-02 -4.269460781227504831e-02 4.848909118537644836e-02 4.976099999999999968e-02 4.524480000000000168e-01 8.899749999999999606e-01
4.755514428935999488e-02 -9.567839177929650038e-03 2.743130950618818259e-02 1.567739999999999967e-01 6.436450000000000227e-01 7.490280000000000271e-01
-9.129238069230181940e-02 -3.178195440465746840e-02 -7.462366426857951207e-02 -9.567909999999999471e-01 2.031640000000000112e-01 -2.031640000000000112e-01
8.438674754534290778e-02 -6.139538021283271613e-02 -1.084156833593359626e-02 9.331990000000000007e-01 -2.527949999999999919e-01 2.527949999999999919e-01
-6.259749877251707950e-02 -3.555453615006829576e-02 2.954635186173469250e-02 -4.132259999999999822e-01 4.001979999999999982e-01 8.165270000000000028e-01
-9.233170166238964180e-03 -1.772553031157596548e-01 -4.405157438140389070e-02 -8.310399999999999732e-02 -7.046430000000000193e-01 7.046430000000000193e-01
-2.850586857858422932e-02 -1.204081130797460403e-01 6.803182178207396388e-03 -2.562389999999999946e-01 -6.834329999999999572e-01 6.834329999999999572e-01
-8.143159355434501090e-02 -9.263574078077843610e-02 -7.225909253244992836e-02 -9.916500000000000314e-01 -8.612200000000000411e-02 8.612200000000000411e-02
-9.253319109382283914e-02 -1.954816621129407128e-02 -3.782377775547465792e-02 -9.918630000000000502e-01 8.493399999999999561e-02 -8.493399999999999561e-02
-8.660639074031005469e-02 -1.124213662974735128e-01 -7.003127270143630345e-02 -9.562420000000000364e-01 -2.043969999999999954e-01 2.044090000000000074e-01
6.172589710583153977e-02 -5.815210045615930995e-02 -1.512303780695919975e-01 7.209259999999999557e-01 4.889830000000000010e-01 -4.889830000000000010e-01
5.237833377416810376e-02 -1.510421271012035993e-01 -9.198280637947114924e-02 1.248879999999999990e-01 -7.727939999999999809e-01 -6.221849999999999881e-01
5.223742455244732158e-02 2.378369044254744630e-02 -8.651101642768108113e-02 4.888230000000000075e-01 6.157989999999999853e-01 -6.157989999999999853e-01
-4.671722911411545220e-02 -1.298964199414867349e-01 -1.840262283023925971e-02 -4.510879999999999890e-01 -6.303889999999999771e-01 6.303889999999999771e-01
8.802499620092348043e-02 -1.119302224442294963e-01 -5.338243504308354259e-02 9.175499999999999767e-01 -2.790599999999999747e-01 2.790599999999999747e-01
-8.661277295860206338e-02 -7.431532406284009629e-02 -4.716646436658464281e-02 -9.842680000000000318e-01 -1.237919999999999993e-01 1.237919999999999993e-01
-8.336537429718338110e-02 -8.795372347662763768e-02 -1.230510942415168618e-01 -9.738099999999999534e-01 1.579679999999999973e-01 -1.579679999999999973e-01
-5.836101437915715284e-02 -1.642268142621959026e-01 -5.490192608599231416e-02 -5.841680000000000206e-01 -5.726320000000000299e-01 5.726320000000000299e-01
5.092972613070943788e-02 4.675002102586176683e-02 -3.615136114940943612e-02 2.801919999999999966e-01 8.696779999999999511e-01 4.050679999999999836e-01
-6.809784597343376822e-02 -4.663137810985978904e-02 3.963576096224620537e-02 -5.822659999999999503e-01 1.093019999999999964e-01 8.042489999999999917e-01
-9.311567095325609666e-02 -2.741672053277603369e-02 -6.622870542682875172e-02 -9.704399999999999693e-01 1.689819999999999933e-01 -1.689819999999999933e-01
-1.145526736653148907e-02 -3.271461068773393044e-02 -1.657936452681897932e-01 -1.073339999999999989e-01 7.025019999999999598e-01 -7.025019999999999598e-01
7.959769308628632245e-02 -1.416522262465437221e-01 -5.999645965385914936e-02 8.228969999999999896e-01 -3.998220000000000107e-01 3.998220000000000107e-01
-8.287750062210533578e-03 -8.264700210764149013e-02 -1.712467628208637627e-01 -2.037299999999999875e-02 -5.760929999999999662e-01 -8.168980000000000130e-01
-8.701053779670497867e-02 -5.614428274995647561e-02 -7.379001191288583894e-02 -9.932069999999999510e-01 7.745799999999999907e-02 -7.745799999999999907e-02
4.088035742878425721e-02 4.611948183208722241e-02 -3.931557799298458777e-02 2.058190000000000019e-01 8.743159999999999821e-01 4.384149999999999991e-01
-2.884912293756896826e-02 2.698083307770670486e-02 -5.410193247984546733e-03 -7.999100000000000654e-02 7.382459999999999578e-01 6.696170000000000178e-01
6.062447446629727621e-02 3.975996991357241828e-02 -5.299831220914899554e-02 5.439730000000000398e-01 8.355259999999999909e-01 -9.957000000000000572e-03
-9.725605515425125858e-02 -8.765012753142342738e-02 -8.735708376097020555e-02 -9.999259999999999815e-01 -1.247999999999999977e-03 1.247999999999999977e-03
-8.501088531379057123e-02 -3.742246232671610218e-02 5.789500465295902877e-03 -9.539490000000000469e-01 -1.194769999999999999e-01 2.705750000000000099e-01
-2.056440045852410414e-02 1.509981166702823938e-02 -1.127355271329688602e-01 -1.884409999999999974e-01 6.939359999999999973e-01 -6.939359999999999973e-01
5.685521907314616818e-02 -1.473178441548586570e-01 -1.077902362951306675e-01 1.237790000000000001e-01 -7.455800000000000205e-01 -6.547809999999999464e-01
-7.790028679524529931e-02 1.166361977644324744e-03 -6.550459828859739320e-02 -8.870479999999999476e-01 3.247309999999999919e-01 -3.247309999999999919e-01
-6.433920448799293479e-02 -1.179926330507985871e-01 -1.935498003379876666e-02 -6.264210000000000056e-01 -5.506020000000000358e-01 5.506020000000000358e-01
-8.463007682399936726e-02 -8.825557571937385493e-02 -2.903281503856235471e-02 -9.188870000000000093e-01 -2.768160000000000065e-01 2.768160000000000065e-01
-7.588263899910528687e-02 -1.535617986082086772e-01 -7.455481982252325224e-02 -8.363399999999999723e-01 -3.987899999999999778e-01 3.731689999999999729e-01
-7.988619168767120693e-02 -3.031529222232301132e-02 -1.010949226527541323e-01 -8.580419999999999714e-01 3.622420000000000084e-01 -3.622420000000000084e-01
-6.068870221460081343e-02 4.454421188685899619e-02 -4.928245853641954888e-02 -4.861509999999999998e-01 8.620330000000000492e-01 1.300729999999999942e-01
8.916842396239252344e-02 -3.303278222866724151e-02 -3.067166547550273861e-02 9.993549999999999933e-01 -1.088399999999999958e-02 1.088399999999999958e-02
-4.398784985747600240e-02 -4.425885303203516696e-02 -1.604474471318071693e-01 -4.167959999999999998e-01 6.422080000000000011e-01 -6.422080000000000011e-01
-4.395214818816795682e-02 -1.702383880986607645e-01 -7.912014502588518572e-02 -1.595159999999999911e-01 -8.535779999999999479e-01 -4.951800000000000090e-01
-8.730479777516850226e-02 -9.761269647388129411e-02 -8.155472246289947880e-02 -9.943410000000000304e-01 -7.114900000000000391e-02 7.114900000000000391e-02
-9.379091474849833576e-02 -8.167397316540293828e-02 -8.434957420319527666e-02 -9.992799999999999461e-01 1.214900000000000008e-02 -1.214900000000000008e-02
1.922300723516829485e-02 -1.437617133080616449e-01 -1.185569328806723721e-01 2.576600000000000071e-02 -7.232819999999999805e-01 -6.900399999999999867e-01
-4.291842287206922013e-02 2.091198130462225066e-02 -1.101385006998056339e-02 -1.400049999999999906e-01 7.463699999999999779e-01 6.503499999999999837e-01
-5.250079140400327332e-02 1.101687339893515569e-02 3.367570523227544910e-03 -1.830160000000000120e-01 7.058820000000000094e-01 6.838980000000000059e-01
-3.836749058783013155e-03 -9.963437151135644265e-02 2.741092858654779404e-02 -3.307700000000000223e-02 -7.061260000000000314e-01 7.061260000000000314e-01
4.707233240051625356e-02 -2.218519048926260659e-02 -1.346670914174184497e-01 4.839970000000000105e-01 6.176650000000000196e-01 -6.176650000000000196e-01
-6.906833252023161784e-02 -1.471619090514333580e-02 -1.019799664913432768e-01 -7.298449999999999660e-01 4.818720000000000225e-01 -4.818720000000000225e-01
-5.528461472268592081e-02 -4.482375531363628346e-02 -1.473287145584099567e-01 -5.747830000000000439e-01 5.772629999999999706e-01 -5.772629999999999706e-01
8.911222247727841606e-02 -4.249449006588954664e-02 9.351965240485365623e-04 9.617740000000000178e-01 -1.902850000000000097e-01 1.935030000000000083e-01
-2.287380094614136980e-02 5.411392921321719202e-02 -7.285126833906456489e-02 -2.109689999999999899e-01 8.888359999999999594e-01 -4.018499999999999850e-01
7.188131566527568295e-02 -4.090523748519338948e-02 -1.260017032582538554e-01 7.497219999999999995e-01 4.660239999999999938e-01 -4.660239999999999938e-01
-7.409819390510279102e-02 -1.074210451619857093e-01 -2.930673029663660722e-02 -8.317069999999999741e-01 -3.908949999999999925e-01 3.908949999999999925e-01
-4.517406137170153907e-02 -1.172535056489969058e-01 -3.147874615507468936e-03 -4.241019999999999790e-01 -6.400320000000000453e-01 6.400320000000000453e-01
-8.514258656477594056e-02 -1.125436308670409030e-01 -8.633673333324473620e-02 -9.844169999999999865e-01 -1.233049999999999979e-01 1.233049999999999979e-01
8.458464307803907622e-02 -5.324465178167114149e-02 1.296929263849049344e-02 8.990329999999999711e-01 -2.958990000000000231e-01 3.218790000000000262e-01
-5.006340329817787760e-02 3.518125932564537817e-02 -2.970118946130000798e-02 -2.431780000000000053e-01 8.317590000000000261e-01 4.989339999999999886e-01
-8.947964662617567677e-02 -5.026227059807349129e-02 -3.570237561638978097e-02 -9.958249999999999602e-01 -6.289500000000000646e-02 6.289500000000000646e-02
5.383875156179888932e-02 -1.207004876028927587e-01 -1.407848790509811931e-01 1.005029999999999951e-01 -6.788899999999999935e-01 -7.272750000000000048e-01
-6.860207360509627816e-02 1.359017119364413703e-02 -7.939906687959026599e-02 -7.523039999999999727e-01 4.639659999999999895e-01 -4.639659999999999895e-01
9.390179192750734705e-02 -6.497795572500503214e-02 -1.001592456339206738e-01 9.729389999999999983e-01 1.608150000000000135e-01 -1.608150000000000135e-01
-7.551320807998158913e-02 -2.701246472312609018e-02 -1.023539774210066589e-01 -8.403380000000000294e-01 3.821510000000000185e-01 -3.821510000000000185e-01
2.890534139678008901e-02 -4.062153769760946248e-02 4.672757711440773953e-02 1.212629999999999958e-01 4.960879999999999734e-01 8.592779999999999863e-01
-8.099242807250589538e-02 -1.041708745212201886e-01 -1.433203663599138533e-01 -4.488440000000000207e-01 -5.380160000000000498e-01 -7.131180000000000296e-01
-8.747110774189043036e-02 -7.323929097790027667e-03 -3.488275546353342658e-03 -8.363080000000000513e-01 3.497649999999999926e-01 4.171400000000000108e-01
7.094621882413430780e-02 2.399557243369849352e-02 -4.926538832767658749e-02 7.060809999999999587e-01 7.030180000000000318e-01 -5.850899999999999851e-02
-4.965220611051777283e-02 -3.358498047911249312e-02 -1.409662256236434708e-01 -5.004269999999999552e-01 6.113129999999999953e-01 -6.113129999999999953e-01
5.831625535703194307e-02 -1.606081340001238866e-01 -8.841746365927127815e-02 2.063419999999999976e-01 -8.124249999999999527e-01 -5.446560000000000290e-01
9.569572659419098293e-02 -7.727209743863441838e-02 -9.133052311233501308e-02 9.963419999999999499e-01 6.001700000000000090e-02 -6.001700000000000090e-02
-7.432615790266912381e-02 -1.024440969285564940e-01 -2.376495032925190348e-02 -8.131779999999999564e-01 -4.096699999999999786e-01 4.096699999999999786e-01
-7.969679872653252783e-02 -1.340498148289658298e-01 -5.624104053827500699e-02 -8.552300000000000457e-01 -3.658779999999999810e-01 3.658779999999999810e-01
9.220472398425614072e-03 -1.589772992964084974e-01 -9.510213564318821533e-02 1.555699999999999965e-02 -7.579789999999999583e-01 -6.520420000000000105e-01
-3.222684349334360016e-02 -6.748853572915733401e-02 5.211999746997224986e-02 -2.694360000000000088e-01 -2.564460000000000073e-01 9.251810000000000311e-01
-9.607663445383156364e-02 -7.990008304127337035e-02 -8.753492357412645530e-02 -9.979230000000000045e-01 3.502000000000000252e-02 -3.502000000000000252e-02
-8.710907254568293900e-02 -5.088311682693689303e-02 -8.770316323646491774e-02 -9.719600000000000461e-01 1.640139999999999931e-01 -1.640139999999999931e-01
2.059902823361911897e-02 -1.024436140278555951e-01 2.279424588335656268e-02 2.035369999999999957e-01 -6.916269999999999918e-01 6.916269999999999918e-01
-8.947561125993953868e-02 -5.764471387669407171e-02 -2.557957706118847013e-03 -9.225370000000000514e-01 -2.706890000000000129e-01 2.706890000000000129e-01
7.555608618995360293e-02 1.777927414283395069e-02 -4.506093592985976198e-02 8.583659999999999624e-01 4.849439999999999862e-01 -1.590020000000000044e-01
7.357272078641914625e-02 -6.509801297903747286e-02 -1.571463901329805402e-01 7.609730000000000105e-01 4.567300000000000249e-01 -4.573789999999999800e-01
5.204780880796237158e-02 -1.459387027288918115e-01 -2.805757721375028158e-02 4.873770000000000047e-01 -6.163739999999999775e-01 6.163440000000000030e-01
-3.992217787458372108e-02 -1.107219754345769719e-01 9.432238072792385741e-03 -3.776880000000000237e-01 -6.538589999999999680e-01 6.538589999999999680e-01
2.716905692448981502e-02 -4.531857656587098132e-02 4.230731503829656542e-02 1.388050000000000117e-01 3.999159999999999937e-01 9.056969999999999743e-01
8.901727022421535018e-02 -9.323465164746534695e-02 -4.668498668384284817e-02 9.497839999999999616e-01 -2.189909999999999912e-01 2.189909999999999912e-01
-8.891666321099270243e-02 -1.423984659955686814e-02 -6.015655596306065944e-02 -9.524160000000000403e-01 2.130450000000000121e-01 -2.130450000000000121e-01
5.196953135378188510e-02 4.722306579719989794e-03 8.903498433630523123e-03 1.875350000000000072e-01 6.904160000000000297e-01 6.984310000000000240e-01
-8.543010995965798215e-02 -1.987974524349920072e-02 -7.898897305578493622e-02 -9.123149999999999871e-01 2.878459999999999908e-01 -2.878459999999999908e-01
-2.572589499947432190e-02 -1.222600909641693157e-01 6.386017229941462481e-03 -2.433430000000000037e-01 -6.855360000000000342e-01 6.855360000000000342e-01
4.593753235151588898e-02 4.094665508357919065e-03 -1.155021070164665986e-01 4.160329999999999862e-01 6.424360000000000070e-01 -6.424360000000000070e-01
-5.356046319304472170e-02 -1.300938281331951996e-01 -2.521111533336312452e-02 -5.436229999999999674e-01 -5.926390000000000269e-01 5.926390000000000269e-01
9.012476779918976444e-02 -1.203205361945401258e-01 -7.156230657446774335e-02 9.432080000000000464e-01 -2.338439999999999963e-01 2.338439999999999963e-01
8.406027506195563881e-02 -1.378588910091725905e-01 -1.054197317560486152e-01 5.970940000000000136e-01 -6.426140000000000185e-01 -4.749740000000000073e-01
8.617306316371070585e-02 -6.406924042385647722e-02 -1.053874678168024992e-01 9.640959999999999530e-01 1.866629999999999956e-01 -1.866629999999999956e-01
6.000045610304714089e-02 -3.665300581939389540e-02 -1.350306009942110752e-01 6.682310000000000194e-01 5.243809999999999860e-01 -5.243809999999999860e-01
-8.974201207320356422e-02 -8.493854826281251047e-02 -4.146946406255767187e-02 -9.529870000000000285e-01 -2.117539999999999978e-01 2.117539999999999978e-01
8.490955801747650245e-02 -6.460862140279320653e-02 -3.232092698619773441e-02 9.772049999999999903e-01 -1.468740000000000046e-01 1.468740000000000046e-01
-7.406993051565990971e-02 -1.562277160300517415e-02 -8.791313536642070270e-02 -8.651229999999999754e-01 3.530849999999999822e-01 -3.530849999999999822e-01
2.387829015487678494e-02 5.121737725282157067e-02 -8.008155415137141464e-02 2.089689999999999881e-01 7.773700000000000054e-01 -5.911809999999999565e-01
-7.912842283228183060e-02 1.306315671632609938e-04 -7.393630280185788106e-02 -8.604600000000000026e-01 3.591159999999999908e-01 -3.591159999999999908e-01
-7.322129221463852256e-02 -8.655760314260857458e-02 -5.562212291543224430e-04 -7.943080000000000140e-01 -4.287900000000000045e-01 4.287900000000000045e-01
-7.978482694723372862e-03 -6.177363032850111124e-02 5.452149663641386174e-02 -5.723199999999999815e-02 5.538900000000000073e-02 9.950630000000000308e-01
5.618833481873734825e-02 -5.383410868904132604e-03 1.620794182943781012e-02 2.130980000000000096e-01 6.543320000000000247e-01 7.250640000000000418e-01
-5.204917791929318527e-02 2.023468761593357965e-02 -9.307310473760725678e-02 -4.860059999999999936e-01 6.169240000000000279e-01 -6.168540000000000134e-01
6.721019207491855897e-04 -1.004225415310076169e-01 -1.564447732264116764e-01 9.770000000000000039e-04 -6.626940000000000053e-01 -7.488780000000000436e-01
6.153960406182115705e-02 -6.685913808384423562e-02 2.785828111639156515e-02 6.596689999999999499e-01 -5.074130000000000029e-01 5.510260000000000158e-01
-4.165540902145069280e-02 -4.266288965582595849e-02 -1.637270953560195086e-01 -3.904830000000000245e-01 6.500470000000000415e-01 -6.500470000000000415e-01
5.112217831146344954e-02 8.065402082996926333e-03 3.899267181268894957e-03 1.786530000000000062e-01 7.059499999999999664e-01 6.849189999999999445e-01
5.402690866066065661e-02 1.961819271475690254e-02 -8.321968690115951264e-03 1.903259999999999952e-01 7.401750000000000274e-01 6.446420000000000483e-01
6.126226925832432835e-02 -9.336978860355765741e-02 9.043901514683080900e-03 6.126620000000000399e-01 -5.585710000000000397e-01 5.585710000000000397e-01
8.583952152335613817e-02 -7.428470184711660762e-02 -1.256889699462339638e-01 9.354580000000000117e-01 2.490040000000000031e-01 -2.490040000000000031e-01
8.126193557214776708e-02 -9.627291054391536040e-02 -1.424885820080316889e-01 6.367270000000000429e-01 -3.752929999999999877e-01 -6.714520000000000488e-01
8.543208699206447654e-02 -4.271026756535541841e-02 -7.769072047392676372e-02 9.709259999999999557e-01 1.673920000000000130e-01 -1.673920000000000130e-01
-4.136100871371698948e-03 4.749450352676145432e-02 -7.885272221367183032e-02 -3.633700000000000124e-02 8.332950000000000079e-01 -5.491780000000000550e-01
7.405968401312849891e-02 1.917791886594227141e-02 -3.857290879544490042e-02 6.485499999999999599e-01 7.248700000000000143e-01 2.226920000000000011e-01
8.699489982233640784e-02 -1.009031150821194066e-02 3.817068150186295108e-03 6.720249999999999835e-01 4.571080000000000143e-01 5.791979999999999906e-01
7.018209151025898984e-02 -1.260269651614464304e-01 -1.268907608278199983e-01 1.924889999999999934e-01 -7.053559999999999830e-01 -6.820129999999999804e-01
-3.795994758662302876e-02 -1.614641304866316629e-01 -4.018931107113453416e-02 -3.762710000000000221e-01 -6.542810000000000015e-01 6.542810000000000015e-01
9.339387930515871683e-02 -6.998073969445159359e-02 -5.033873184265366674e-02 9.919559999999999489e-01 -8.441700000000000592e-02 8.441700000000000592e-02
-8.124001184339435522e-02 -1.001207140437778385e-02 8.177422107723979205e-03 -5.210179999999999811e-01 5.492329999999999712e-01 6.524060000000000414e-01
-1.689625344031005921e-02 4.610161596754532715e-03 8.771809285966890996e-03 -4.342499999999999832e-02 6.964700000000000335e-01 7.161929999999999685e-01
1.282680135432801710e-02 5.510459978548219034e-02 -6.066999251311089303e-02 9.099300000000000443e-02 9.909080000000000110e-01 7.466299999999999326e-02
3.993559490160988878e-02 -4.771202548794647308e-02 4.625683793709418207e-02 2.419290000000000052e-01 3.104890000000000150e-01 9.180380000000000207e-01
8.648661290328987783e-02 -1.248847150007744017e-01 -8.527410272786008216e-02 9.678160000000000096e-01 -1.775549999999999906e-01 1.775549999999999906e-01
-1.404197040503598779e-03 -1.614687348551634982e-01 -3.214599025314644060e-02 -1.273900000000000032e-02 -7.067290000000000516e-01 7.067290000000000516e-01
-6.672888621602801607e-02 -1.898903516768509631e-02 -1.159031493642714433e-01 -6.852840000000000042e-01 5.136859999999999760e-01 -5.136859999999999760e-01
5.329032996718101323e-02 -1.670277498314726161e-01 -9.796693403575716663e-02 1.314670000000000005e-01 -7.689589999999999481e-01 -6.253840000000000510e-01
7.291302092827309234e-02 2.688933116711081373e-02 -5.847039213018665610e-02 7.964830000000000521e-01 4.967480000000000229e-01 -3.400549999999999962e-01
8.976633538576819782e-02 -5.928837867954336177e-02 -7.715691728936897864e-02 9.925810000000000466e-01 8.094300000000000106e-02 -8.094300000000000106e-02
1.461611317527935702e-02 -8.955694203306744858e-03 -1.371818651061066097e-01 1.213270000000000043e-01 7.012439999999999785e-01 -7.012439999999999785e-01
8.848448845200944379e-02 -3.321893957181635409e-02 -8.483222270222798289e-02 9.433690000000000131e-01 2.334799999999999931e-01 -2.334799999999999931e-01
-1.399701150035636762e-02 8.654757169394382971e-03 -1.162018044640923536e-01 -1.291069999999999995e-01 7.005449999999999733e-01 -7.005449999999999733e-01
6.931805321742566528e-02 -1.591621471801206722e-01 -7.257007263804161890e-02 7.702440000000000397e-01 -5.219380000000000130e-01 3.622589999999999977e-01
-7.142076210170071604e-02 5.619315812918267150e-03 -1.369171071910521564e-03 -3.715149999999999841e-01 6.642209999999999503e-01 6.483849999999999891e-01
8.861596335466810637e-02 -2.608328949143743844e-02 -2.648704899932637080e-02 9.998939999999999495e-01 1.789000000000000009e-03 -1.789000000000000009e-03
5.993930162478038060e-02 6.607718729055399656e-03 -9.741977192769922522e-02 5.930839999999999446e-01 5.682319999999999593e-01 -5.682319999999999593e-01
-2.571804182462987184e-02 -1.720486457812882564e-01 -8.585730727744857183e-02 -6.302399999999999669e-02 -8.141979999999999773e-01 -5.767480000000000384e-01
-6.273082112385745812e-02 -1.369027262282797863e-01 -3.351785027895971131e-02 -6.402989999999999515e-01 -5.418990000000000196e-01 5.418990000000000196e-01
5.130327195706851223e-02 -6.211210797980878939e-02 4.952482673142032110e-02 4.988090000000000024e-01 -3.100890000000000035e-01 8.072960000000000136e-01
5.294637278628273186e-02 2.392178879337083022e-02 -8.049537624955854787e-02 5.288779999999999593e-01 5.999160000000000048e-01 -5.999160000000000048e-01
8.039763109510741912e-02 -9.883526027527329838e-02 -1.407864022477180177e-01 4.766589999999999994e-01 -4.977309999999999790e-01 -7.219889999999999919e-01
8.818107883339676434e-02 -3.288968448406095861e-03 -2.165664265671869010e-02 9.736110000000000042e-01 2.134369999999999878e-01 6.161300000000000110e-02
7.078967029162049063e-02 6.691439656175439052e-03 -6.674375699189541954e-03 3.724250000000000060e-01 6.901610000000000245e-01 6.201259999999999550e-01
1.657164143865734116e-02 -1.409396538655924014e-01 -1.108111136951112075e-02 1.571960000000000024e-01 -6.980210000000000026e-01 6.980210000000000026e-01
-2.761762180683184978e-02 -1.431027221457718546e-01 -1.983654756588173335e-02 -2.466740000000000044e-01 -6.850270000000000525e-01 6.850270000000000525e-01
-3.238555431079730151e-02 -4.998071384194299055e-02 5.254781274243032485e-02 -1.772890000000000021e-01 3.048669999999999991e-01 9.349410000000000220e-01
-8.489051221279406145e-02 -7.774110691745761414e-02 -2.433954498145334683e-02 -9.381629999999999692e-01 -2.444620000000000126e-01 2.444620000000000126e-01
-7.385680170253239307e-02 -1.531815731063135844e-01 -9.172538491752224576e-02 -3.964900000000000091e-01 -7.790650000000000075e-01 -4.845700000000000007e-01
-1.273626925502780415e-02 -1.135026261213610971e-01 1.542657515345123055e-02 -1.126019999999999938e-01 -7.020290000000000141e-01 7.020290000000000141e-01
6.316454415008852796e-02 3.782450634221660307e-02 -4.156972903319314239e-02 4.755429999999999935e-01 8.434549999999999548e-01 2.433579999999999910e-01
-5.821949579729817845e-03 -1.575162394324824411e-01 -9.887144451199861295e-02 -9.277000000000000524e-03 -7.546239999999999615e-01 -6.560129999999999573e-01
-7.009496660675336444e-02 2.552613933140117364e-02 -3.051275341412682321e-02 -4.927969999999999851e-01 7.640730000000000022e-01 4.148800000000000265e-01
1.323328871033473651e-02 -9.663072431405436702e-02 -1.659284963299726412e-01 2.228099999999999872e-02 -6.521160000000000290e-01 -7.577409999999999979e-01
9.621264806955011351e-02 -9.963358056268230289e-02 -9.931014449255268217e-02 9.999160000000000270e-01 -1.412999999999999977e-03 1.412999999999999977e-03
4.647609514466888303e-02 -1.533158561262762676e-01 -3.879006604666675184e-02 4.643789999999999862e-01 -6.252510000000000012e-01 6.252510000000000012e-01
3.242219015694763201e-02 -1.783538028112264806e-01 -6.111130666286625907e-02 2.269919999999999993e-01 -9.704080000000000483e-01 1.974700000000000066e-02
-2.663039458734015735e-02 -5.042636536525411939e-02 -1.774414037045392578e-01 -2.527449999999999974e-01 6.837619999999999809e-01 -6.844329999999999581e-01
-3.619330467567908466e-02 9.583790373259928191e-03 -1.123925712304949809e-01 -3.354860000000000064e-01 6.658899999999999819e-01 -6.658899999999999819e-01
3.970878356984589713e-02 4.717366548857926736e-03 1.513256353478140137e-02 1.163200000000000067e-01 6.767020000000000257e-01 7.268390000000000128e-01
-4.332262273052787938e-02 2.570704090248941351e-02 -9.132628904614861765e-02 -4.446419999999999817e-01 6.328810000000000269e-01 -6.328810000000000269e-01
4.156096321851197178e-02 -5.868403373188075395e-02 4.135283274579769353e-02 3.138730000000000131e-01 1.668299999999999991e-02 9.473399999999999599e-01
1.669944363641055751e-02 4.708826671379770512e-02 -3.015239358817063675e-02 5.999600000000000072e-02 8.240969999999999684e-01 5.628819999999999935e-01
-6.217592763241595183e-02 -1.056369704133843512e-01 1.285259722619652451e-03 -6.068090000000000428e-01 -5.614590000000000414e-01 5.614590000000000414e-01
-8.830412695236046494e-02 -3.555077869398710205e-02 -7.263194947690895797e-02 -9.701279999999999903e-01 1.700010000000000132e-01 -1.700010000000000132e-01
7.126729672881038091e-02 -8.517533400345176156e-03 1.168825225550071054e-02 4.052749999999999964e-01 5.745850000000000124e-01 7.096710000000000518e-01
4.467241649269090148e-02 2.559439866570276112e-02 -8.478397359444610204e-02 4.360109999999999819e-01 6.362179999999999502e-01 -6.362179999999999502e-01
-7.755020908945967073e-02 -9.212986606441903037e-02 -1.451654653148206353e-01 -3.518580000000000041e-01 -5.355560000000000320e-01 -7.669749999999999623e-01
5.290992066876026162e-02 -4.402647200430501867e-02 4.847723953563033011e-02 3.341370000000000173e-01 3.232579999999999898e-01 8.842560000000000420e-01
2.837733863008537125e-02 1.960696348523683838e-02 -1.088975659424104153e-01 2.658730000000000260e-01 6.813000000000000167e-01 -6.813000000000000167e-01
3.289452674221720468e-02 -1.370485342524139782e-01 -2.560881025048515267e-02 3.471920000000000006e-01 -6.629439999999999777e-01 6.629439999999999777e-01
-7.905358912266668980e-02 -1.500986981433043155e-01 -9.079756782199413512e-02 -6.458070000000000199e-01 -7.149780000000000024e-01 -2.553329999999999766e-01
-1.507497435475312411e-02 -1.818501795085262773e-01 -6.098930736073571168e-02 -8.759799999999999531e-02 -9.815070000000000183e-01 -1.584409999999999985e-01
-8.670565623442916259e-02 -7.019807495547739432e-03 1.659487899086686683e-03 -6.664630000000000276e-01 4.786380000000000079e-01 5.685679999999999623e-01
-7.074159037493552016e-02 -3.519808001784316322e-03 3.662727088856370349e-03 -3.754109999999999947e-01 6.236730000000000329e-01 6.852840000000000042e-01
-2.816174997905669664e-02 -7.146987609837024413e-02 4.572517442698646739e-02 -2.709679999999999866e-01 -4.250990000000000046e-01 8.623610000000000442e-01
-9.537957492988013986e-02 -1.088867876629111553e-01 -8.920052819117296750e-02 -9.912710000000000132e-01 -8.823100000000000387e-02 8.823100000000000387e-02
-6.933905257673915468e-02 -3.754371412671077962e-02 2.563656282018220850e-02 -4.974239999999999773e-01 3.174609999999999932e-01 8.060829999999999940e-01
6.937583194498594952e-02 -9.345401068965450420e-02 -1.864145133822631487e-02 8.186510000000000176e-01 -4.041250000000000120e-01 4.041250000000000120e-01
7.827775764446226470e-02 -4.170733728825556236e-02 -9.225437432691023509e-02 9.423439999999999594e-01 2.357940000000000036e-01 -2.357940000000000036e-01
8.626817844846210170e-02 -1.235544481418721086e-01 -1.199902067430306946e-01 6.545549999999999979e-01 -5.527699999999999836e-01 -5.125459999999999461e-01
3.206134154301248929e-02 1.015332290475751478e-02 -1.137933028555307563e-01 2.891380000000000061e-01 6.761500000000000288e-01 -6.761500000000000288e-01
-4.553443152643565223e-02 2.477574851927187224e-02 -8.436434241587313643e-02 -4.520859999999999879e-01 6.300029999999999797e-01 -6.300029999999999797e-01
-6.752789033104782124e-02 -5.786058878278153156e-02 3.105706927032424874e-02 -7.757610000000000339e-01 -3.506759999999999877e-01 5.229599999999999804e-01
4.700216479445258784e-03 7.323115401706735417e-03 -1.167425881261713733e-01 4.099200000000000066e-02 7.058910000000000462e-01 -7.058910000000000462e-01
8.971188944863696391e-02 -1.412337345646054176e-01 -9.113854184451601614e-02 9.375250000000000528e-01 -3.138560000000000239e-01 1.419420000000000126e-01
4.748972337923346165e-02 -5.878808510348443317e-02 -1.708103318560598993e-01 4.504870000000000263e-01 4.462700000000000000e-01 -7.707359999999999767e-01
-5.954152002791904610e-03 -1.024191907673824564e-01 -1.535517427276936742e-01 -8.899000000000000660e-03 -6.717189999999999550e-01 -7.407129999999999548e-01
-8.333823456857621104e-02 -2.464530913120297970e-02 -6.594780483841425345e-02 -9.618919999999999693e-01 1.916420000000000068e-01 -1.916420000000000068e-01
8.084638444371719523e-02 -3.968929639441193952e-03 -2.831234857674640865e-02 9.831860000000000044e-01 1.727879999999999971e-01 -5.116600000000000315e-02
-7.517295463009922296e-02 -5.229883591553771000e-02 1.997704315791517735e-02 -8.576920000000000099e-01 -3.245129999999999959e-01 3.965250000000000163e-01
-7.520037612293559159e-02 -1.271231717121685534e-01 -5.024904737496670160e-02 -8.351250000000000062e-01 -3.874319999999999986e-01 3.874319999999999986e-01
3.353437989762814847e-02 -1.042688163223028097e-01 2.322620450998628266e-02 2.924700000000000077e-01 -6.754130000000000411e-01 6.754130000000000411e-01
5.956426488251057028e-02 -1.606815940591282965e-01 -5.831653768448714914e-02 5.982990000000000252e-01 -5.656619999999999981e-01 5.656550000000000189e-01
-5.845017721566890534e-02 -2.830358818276448168e-02 3.075562032343120630e-02 -2.881170000000000120e-01 5.336539999999999617e-01 7.948749999999999982e-01
-8.786092167756021087e-02 -1.496982623473471115e-02 -7.014956386561591040e-02 -9.240850000000000453e-01 2.680910000000000237e-01 -2.680910000000000237e-01
-3.717799598126417943e-02 -1.351156116294559284e-01 -1.213982622767693365e-01 -5.457499999999999851e-02 -7.184970000000000523e-01 -6.933280000000000554e-01
6.566802337219948549e-02 -3.975506206760572037e-02 -1.319317673623089660e-01 7.274190000000000378e-01 4.838060000000000138e-01 -4.838060000000000138e-01
-8.635556007481123841e-02 -1.145155764926312353e-01 -6.884366123896477896e-02 -9.478100000000000414e-01 -2.234389999999999987e-01 2.234559999999999880e-01
-1.612600637446515118e-03 3.004172042984995170e-02 -1.178355372061293954e-02 -4.255000000000000102e-03 7.613739999999999952e-01 6.481149999999999967e-01
-7.400277711621276733e-02 -1.612607433786301114e-01 -8.735879711953038751e-02 -5.459260000000000224e-01 -7.740029999999999966e-01 -3.162329999999999863e-01
-5.922860651792272169e-02 3.724042945246880398e-02 -6.470428148379765709e-02 -5.956420000000000048e-01 6.334800000000000431e-01 -4.911150000000000237e-01
-6.750727567489418768e-02 -6.721212677262648760e-02 3.403733915143891675e-02 -6.888119999999999798e-01 -4.632809999999999984e-01 5.551810000000000356e-01
3.947046891891917153e-02 -1.632915589364088982e-01 -8.280710392731925606e-02 9.875299999999999356e-02 -8.058079999999999687e-01 -5.836999999999999966e-01
-6.859121170531831679e-02 3.008917444421634058e-02 -3.317208787441277423e-02 -4.480000000000000093e-01 8.007069999999999466e-01 3.964219999999999966e-01
-6.688028091662129304e-02 -1.585609496692611253e-01 -9.338427977895377707e-02 -2.825239999999999974e-01 -7.931040000000000312e-01 -5.387170000000000014e-01
-2.542361050221275329e-02 3.633982843091135284e-02 -3.226724220731179427e-02 -9.027499999999999414e-02 8.260359999999999925e-01 5.560840000000000227e-01
2.541412134567459097e-02 4.273541323000008829e-02 -3.218881763965864701e-02 9.529500000000000470e-02 8.383040000000000491e-01 5.360439999999999650e-01
1.253248643838799498e-02 2.208236211863568929e-02 -1.021837177479052311e-01 1.118090000000000056e-01 7.020999999999999464e-01 -7.020999999999999464e-01
-7.063060203853325190e-03 -1.391828304424433116e-01 -7.512058952907062562e-03 -6.420499999999999818e-02 -7.052030000000000243e-01 7.052030000000000243e-01
-4.853565663677983366e-02 -1.763586001598568542e-01 -5.899465110878575336e-02 -4.842940000000000023e-01 -6.384689999999999532e-01 5.956010000000000471e-01
3.403932589931311405e-03 -1.511289642683356360e-01 -1.025972018112849410e-01 5.331999999999999934e-03 -7.458690000000000042e-01 -6.660089999999999621e-01
-1.084250099162699377e-02 -1.320354103399424828e-01 -1.272808053444466070e-01 -1.376899999999999999e-02 -7.132319999999999771e-01 -7.007630000000000248e-01
-1.971963384030492664e-02 -4.883439403426886871e-02 4.793869660137453637e-02 -1.026169999999999999e-01 3.640519999999999867e-01 9.246739999999999959e-01
-5.427963908848769392e-02 -1.659865010372927052e-01 -8.222316584857833344e-02 -2.400370000000000004e-01 -8.496740000000000403e-01 -4.681750000000000078e-01
5.814241196708898329e-02 -1.263345911214140693e-01 -1.986352127412266758e-02 5.729039999999999688e-01 -5.781899999999999817e-01 5.781899999999999817e-01
5.831603873784430014e-02 3.079638018170008720e-02 -7.425041330704063025e-02 5.872159999999999602e-01 5.719279999999999919e-01 -5.703240000000000531e-01
1.710385650821841241e-02 -1.788709052165207702e-01 -5.542494609889154350e-02 1.539590000000000125e-01 -8.604610000000000314e-01 4.820519999999999805e-01
-6.711930840302449131e-02 -8.815095526235144918e-02 -1.644994924688827354e-01 -2.485330000000000039e-01 -5.390700000000000491e-01 -8.044519999999999449e-01
8.210337429918181107e-02 -1.365943826250013426e-01 -1.104493886056165247e-01 3.849890000000000256e-01 -6.917060000000000430e-01 -6.100200000000000067e-01
-9.441131141642367108e-02 -2.472408725537759630e-02 -3.020871972792149585e-02 -9.985340000000000327e-01 2.472099999999999992e-02 -2.472099999999999992e-02
-8.434513378934117844e-02 -1.320677207045953261e-01 -6.715437358915604671e-02 -8.981940000000000479e-01 -3.103170000000000095e-01 3.103170000000000095e-01
3.299780113296840733e-02 -1.412046895475498609e-01 -1.378876822108567393e-02 2.978430000000000244e-01 -6.742230000000000167e-01 6.742230000000000167e-01
8.716173110666432244e-02 -6.660823723920675232e-02 -7.623064451235965489e-02 9.974159999999999693e-01 4.356700000000000156e-02 -4.356700000000000156e-02
-1.338499374100843818e-02 4.853291324889177222e-02 -5.377526266509868869e-02 -7.764600000000000668e-02 9.460749999999999993e-01 3.133759999999999879e-01
-7.266333503022803786e-02 -1.249581806648551729e-01 -4.567445099312814755e-02 -8.027109999999999523e-01 -4.202759999999999829e-01 4.202759999999999829e-01
2.182755409826431237e-02 -2.872858895833703755e-02 3.913427939970186981e-02 7.671000000000000041e-02 5.705310000000000104e-01 8.174059999999999659e-01
-7.066071256202984333e-03 -1.684755444817615314e-02 3.054327055446936015e-02 -1.993899999999999839e-02 6.511200000000000321e-01 7.585730000000000528e-01
-7.540933016016029833e-02 -1.521568170037002898e-01 -6.676023433610468738e-02 -7.950599999999999890e-01 -4.280280000000000196e-01 4.280280000000000196e-01
8.799394590860826204e-02 -7.621927617668554367e-02 -1.075004424213736043e-01 9.803579999999999517e-01 1.365689999999999960e-01 -1.365689999999999960e-01
3.729062992616458821e-02 -1.347670454728450706e-01 -1.135938806299834937e-02 3.575710000000000277e-01 -6.598659999999999526e-01 6.598380000000000356e-01
-9.196142061177089988e-02 -7.352725665890799678e-02 -8.269962364234029195e-02 -9.975260000000000238e-01 4.171099999999999808e-02 -4.171099999999999808e-02
-4.476698052491815891e-03 -3.384051595671810214e-02 -1.629927150751733500e-01 -4.053500000000000159e-02 7.059050000000000047e-01 -7.059050000000000047e-01
9.096480868552904442e-02 -8.468632185497217135e-02 -4.069538992835453756e-02 9.564519999999999689e-01 -2.039289999999999992e-01 2.039289999999999992e-01
-7.701511652437109667e-02 -2.029629024043330676e-02 -9.193079689465193105e-02 -8.560219999999999496e-01 3.648540000000000116e-01 -3.648540000000000116e-01
-6.465638017691559269e-02 -3.824080926671867380e-03 -9.536738538879641069e-02 -7.304779999999999607e-01 4.813669999999999893e-01 -4.813669999999999893e-01
8.495326621617274587e-02 -4.497061561150229869e-02 1.221838663179238352e-02 9.211420000000000163e-01 -1.961950000000000083e-01 3.319889999999999786e-01
-8.202909407715125445e-02 -5.320857344479347495e-02 -9.057155315455922562e-02 -9.676489999999999814e-01 1.781020000000000103e-01 -1.781020000000000103e-01
4.305526448551356272e-02 -7.759785697229022727e-02 -1.749976797912841109e-01 1.512769999999999948e-01 -4.968940000000000023e-01 -8.539510000000000156e-01
9.335565288977476506e-02 -4.523132668098926029e-02 -7.714867385913570796e-02 9.757449999999999735e-01 1.516450000000000020e-01 -1.516450000000000020e-01
9.487466784896728123e-02 6.661497834892473246e-04 -2.937883764689280808e-02 9.704850000000000421e-01 2.353200000000000014e-01 -3.407700000000000312e-02
1.480950032668491151e-02 -5.237127672715723159e-02 5.520449209898432158e-02 7.972400000000000320e-02 3.341480000000000006e-01 9.383780000000000454e-01
-5.837545765295620165e-02 -3.230939619914684636e-03 -1.091593936836130901e-01 -5.961600000000000232e-01 5.667140000000000510e-01 -5.667140000000000510e-01
-8.416614356053060686e-02 -3.823492613545116658e-02 -2.273638830400049118e-02 -9.947759999999999936e-01 -6.872899999999999843e-02 6.872899999999999843e-02
8.780719126059277624e-02 -6.751482581667955785e-02 -1.205022107648463965e-02 9.235029999999999628e-01 -2.690679999999999739e-01 2.690679999999999739e-01
5.447521451526819020e-02 -1.493509649757451541e-01 -9.736123734689033915e-02 1.242779999999999996e-01 -7.608949999999999880e-01 -6.368150000000000199e-01
7.717460890840474597e-02 -1.190971383815056656e-01 -1.286019850804110687e-01 2.719719999999999915e-01 -6.622139999999999693e-01 -6.975179999999999714e-01
4.479073326849072195e-02 -6.442947019499464800e-02 4.372819329487661472e-02 3.972100000000000075e-01 -2.837819999999999787e-01 8.721510000000000096e-01
7.675429451266781167e-02 2.271126805687857797e-02 -3.381081809028838037e-02 6.921209999999999862e-01 6.927010000000000112e-01 2.010500000000000065e-01
9.063902340051213646e-02 -7.056768102470142856e-02 -1.330272374835146099e-01 8.923550000000000093e-01 3.178679999999999839e-01 -3.178679999999999839e-01
-6.654100747885412226e-02 -5.202971725069883285e-02 3.678137919635628139e-02 -6.179970000000000185e-01 -5.512899999999999745e-02 7.812630000000000408e-01
-6.575570232500829726e-02 -1.577280278543765624e-01 -5.802203295137211420e-02 -6.448770000000000335e-01 -5.390270000000000339e-01 5.390270000000000339e-01
4.713197992160175070e-02 -1.373382757973032886e-01 -2.139119358509079805e-02 4.396160000000000068e-01 -6.348249999999999726e-01 6.348249999999999726e-01
8.597350378727373899e-02 -6.569746652118940711e-02 -1.343262615982528975e-02 9.409680000000000266e-01 -2.389030000000000042e-01 2.389030000000000042e-01
2.038426340118002639e-02 3.544897414037338768e-02 -2.854372038371190412e-02 6.892199999999999716e-02 8.156379999999999741e-01 5.739100000000000312e-01
2.260686258129574605e-02 -1.687197426835832514e-01 -8.286982813291379757e-02 4.475099999999999911e-02 -7.916950000000000376e-01 -6.091659999999999853e-01
9.113504121513728296e-02 -1.214942702523641171e-01 -1.182251729253318007e-01 7.733409999999999451e-01 -4.542640000000000011e-01 -4.406459999999999821e-01
-8.973858611051816273e-03 -9.230461767132525086e-02 -1.674670012149808707e-01 -1.635500000000000148e-02 -6.390289999999999582e-01 -7.689289999999999736e-01
-3.871915042291387832e-02 5.164077249855424101e-02 -5.841405084737782277e-02 -2.874970000000000026e-01 9.554899999999999505e-01 4.548599999999999866e-02
-3.100878811095988605e-02 -8.056335738615978681e-03 2.075265294534902813e-02 -9.045499999999999374e-02 6.450639999999999707e-01 7.585760000000000280e-01
-1.659560643548422046e-02 -8.519673306817694691e-02 4.270565690584331164e-02 -1.543380000000000030e-01 -6.942249999999999810e-01 7.022869999999999946e-01
-3.567858378427203603e-02 4.586944726996408650e-02 -4.264634928200711217e-02 -1.729239999999999944e-01 8.867190000000000349e-01 4.271240000000000037e-01
9.172373481582503374e-02 -1.187082380935514381e-01 -1.129081634598250866e-01 9.850210000000000354e-01 -1.390129999999999977e-01 -8.363500000000000101e-02
-9.007417363263191257e-02 -2.463289684212145378e-02 -1.463862245617476680e-03 -9.635489999999999888e-01 5.110499999999999765e-02 2.603230000000000266e-01
-7.521313296386647473e-02 -3.713903665567117041e-02 -1.026753474685737078e-01 -8.967370000000000063e-01 3.122019999999999795e-01 -3.122019999999999795e-01
8.339361733322196713e-02 -1.126606878550450302e-01 -1.326164014279743730e-01 4.076429999999999776e-01 -6.106589999999999518e-01 -6.771559999999999802e-01
7.457046843038034334e-02 -2.976779393824959333e-02 -1.077892012029208202e-01 8.001570000000000071e-01 4.228629999999999889e-01 -4.228629999999999889e-01
6.507278116383513611e-02 -1.365325559445517145e-01 -1.153717955016020924e-01 1.545970000000000122e-01 -7.170020000000000282e-01 -6.795879999999999699e-01
-5.848043178467129954e-02 -6.710918843438370973e-02 -1.645765061045000310e-01 -6.312039999999999873e-01 4.148629999999999818e-01 -6.517089999999999828e-01
-3.638510623391618543e-02 9.982624660041385101e-03 8.603490337026481471e-03 -1.055289999999999978e-01 7.027050000000000241e-01 7.034580000000000277e-01
-6.499031860670054228e-02 -1.396763985426020260e-01 -4.161869504789696139e-02 -6.916520000000000445e-01 -5.096920000000000339e-01 5.096920000000000339e-01
4.009339643532151137e-02 -8.852149566008833681e-03 2.209929642843158626e-02 1.296859999999999957e-01 6.549289999999999834e-01 7.442689999999999584e-01
2.668985186643352270e-02 -5.863957848263373629e-02 5.033242320825968147e-02 1.979760000000000131e-01 8.383000000000000174e-02 9.746759999999999868e-01
-3.962129266766247632e-02 -6.466666832879837401e-02 4.628823130670278035e-02 -3.218409999999999882e-01 -2.216309999999999947e-01 9.177939999999999987e-01
9.524146235829492046e-02 -8.538582059509360403e-03 -5.229820308381348537e-02 9.543359999999999621e-01 2.087080000000000046e-01 -2.087080000000000046e-01
3.407592215387563600e-02 -1.808004725178601335e-01 -6.782198182709682499e-02 1.489139999999999908e-01 -9.135510000000000019e-01 -3.758469999999999867e-01
-7.323590217689811277e-02 -1.703896020038722994e-02 1.739279790618857013e-02 -4.860380000000000256e-01 5.079839999999999911e-01 7.097839999999999705e-01
-1.253936283125378463e-02 4.787467319257114606e-02 -4.269819522770049863e-02 -5.515300000000000064e-02 8.756690000000000307e-01 4.785829999999999806e-01
-4.900796712488407481e-02 -9.374871650096666675e-02 1.972782072568431133e-02 -5.061649999999999761e-01 -6.090950000000000530e-01 6.090950000000000530e-01
-4.104236220007999314e-02 3.470023300447647174e-02 -2.882797524403504438e-02 -1.540789999999999937e-01 8.115900000000000336e-01 5.631730000000000347e-01
2.255354008739566748e-02 1.769309224607069561e-02 -1.052915903167244427e-01 2.015129999999999977e-01 6.919359999999999955e-01 -6.919359999999999955e-01
1.195766166682717124e-02 -1.434337249160854977e-01 -1.066358253203960327e-01 1.685100000000000139e-02 -7.328729999999999967e-01 -6.801040000000000418e-01
-4.722661230888947764e-02 -9.417997604552452717e-02 -1.597150659848990684e-01 -1.104959999999999970e-01 -6.081379999999999564e-01 -7.860439999999999650e-01
-2.354440448763224503e-02 -1.391366555768136781e-01 -1.567811939432990631e-02 -2.053300000000000125e-01 -6.913519999999999666e-01 6.913519999999999666e-01
1.649439030949797352e-02 -1.062114029827976314e-01 -1.494499989876554580e-01 2.426899999999999891e-02 -6.704689999999999817e-01 -7.415110000000000312e-01
-1.679318243523133039e-02 5.480304287862562684e-02 -5.509785294866605815e-02 -1.016999999999999987e-01 9.619649999999999590e-01 2.499830000000000108e-01
-8.249198342094271608e-02 -3.507925353062706780e-02 -1.030105560705820433e-01 -8.733290000000000219e-01 3.424730000000000274e-01 -3.424730000000000274e-01
-3.707671282380436278e-02 -1.703207749245071734e-01 -5.390817548933894698e-02 -3.492450000000000276e-01 -6.730390000000000539e-01 6.514029999999999543e-01
-8.596832094181368344e-02 -2.162423631862070428e-02 1.700256176284399871e-03 -9.380439999999999889e-01 1.175559999999999938e-01 3.239980000000000082e-01
-5.946912081180308340e-02 -1.724143061092130516e-02 -1.199435082080403253e-01 -6.359590000000000520e-01 5.446210000000000218e-01 -5.446210000000000218e-01
-6.029110608310842001e-02 1.320158897490118950e-02 -9.264328434253853162e-02 -5.943060000000000009e-01 5.676369999999999472e-01 -5.676200000000000134e-01
-2.404091707476460789e-03 -1.059995632946810901e-01 2.266863350718876721e-02 -2.094100000000000128e-02 -7.064859999999999474e-01 7.064859999999999474e-01
4.113510010211383905e-02 2.349041594499254662e-02 -9.665153975349009829e-02 3.944369999999999821e-01 6.488690000000000291e-01 -6.488690000000000291e-01
-2.100245754166766080e-02 -4.525583482685323691e-03 -1.457250709370678798e-01 -1.857020000000000060e-01 6.943550000000000555e-01 -6.943550000000000555e-01
8.851027397506519567e-02 -9.017369240632998675e-03 -5.862069851027728457e-02 9.450229999999999464e-01 2.297440000000000038e-01 -2.297440000000000038e-01
-5.766117648605265794e-02 -1.229941712657753872e-01 -1.290335724051709376e-01 -1.140609999999999957e-01 -6.890389999999999571e-01 -7.155439999999999579e-01
-5.255816466523115238e-02 -1.000289866778066444e-01 1.533211005457188990e-03 -5.768649999999999611e-01 -5.762350000000000527e-01 5.762350000000000527e-01
-8.919086214889475339e-02 -3.295753566744764884e-02 -6.194431527388574027e-02 -9.814439999999999831e-01 1.330199999999999994e-01 -1.330199999999999994e-01
5.429626003333152227e-03 1.781632860692819106e-02 -1.063012828086705858e-01 4.960400000000000226e-02 7.056360000000000410e-01 -7.056360000000000410e-01
9.074448746692083401e-02 -6.609584092990132553e-02 -2.732796774745265000e-02 9.672100000000000142e-01 -1.795370000000000021e-01 1.795370000000000021e-01
8.961612481810468656e-02 -3.601506638404543270e-02 -7.298270292627501155e-02 9.696590000000000487e-01 1.715339999999999920e-01 -1.715339999999999920e-01
7.901080118339770531e-02 -1.302573131017201354e-02 -7.922527901194101330e-02 8.893619999999999859e-01 3.217380000000000240e-01 -3.217380000000000240e-01
